# .PCD v.7 - Point Cloud Data file format
VERSION .7
FIELDS x y z
SIZE 4 4 4
TYPE F F F
COUNT 1 1 1
WIDTH 801
HEIGHT 1
VIEWPOINT 0 0 0 1 0 0 0
POINTS 801
DATA ascii
-0.47725 -0.983486 -0.30959
-0.367822 -0.936248 -0.329508
-0.255725 -0.976589 -0.31483
-0.150189 -0.977985 -0.314963
-0.0507305 -0.97868 -0.31484
0.0527927 -0.980562 -0.314681
0.14852 -0.980807 -0.314467
0.260621 -0.960288 -0.321175
0.353693 -0.979288 -0.310615
-0.472857 -0.886361 -0.315873
-0.377075 -0.888215 -0.343281
-0.249329 -0.889864 -0.321914
-0.148531 -0.8916 -0.321915
-0.0473644 -0.886962 -0.321918
0.0563596 -0.885378 -0.321921
0.152195 -0.88404 -0.321922
0.284245 -0.888518 -0.340439
0.330509 -0.887742 -0.33184
-0.474495 -0.742125 -0.315355
-0.364849 -0.767736 -0.321931
-0.273374 -0.730865 -0.321931
-0.137752 -0.753414 -0.321931
-0.036603 -0.748943 -0.321931
0.0552061 -0.748624 -0.321931
0.148415 -0.746266 -0.321931
0.262221 -0.748736 -0.321931
0.349824 -0.745817 -0.316624
-0.470859 -0.644261 -0.315785
-0.386683 -0.657146 -0.321931
-0.23055 -0.643002 -0.321931
-0.144742 -0.646848 -0.321931
-0.0477047 -0.649829 -0.321931
0.0499901 -0.645656 -0.321931
0.150109 -0.64988 -0.321931
0.249382 -0.643659 -0.321931
0.351808 -0.645921 -0.316325
-0.472927 -0.546573 -0.315545
-0.332591 -0.561374 -0.321931
-0.240605 -0.556953 -0.321931
-0.170352 -0.547328 -0.321931
-0.0394812 -0.545499 -0.321931
0.0472764 -0.552206 -0.321931
0.154913 -0.550877 -0.321931
0.235739 -0.547592 -0.321931
0.354543 -0.547464 -0.315732
-0.475319 -0.447601 -0.315529
-0.348765 -0.465601 -0.321931
-0.260969 -0.450867 -0.321931
-0.132124 -0.461018 -0.321931
-0.072375 -0.437167 -0.321931
0.0485099 -0.460544 -0.321931
0.148825 -0.452682 -0.321931
0.232365 -0.451972 -0.321931
0.355775 -0.448595 -0.315724
-0.477264 -0.347961 -0.315264
-0.353387 -0.358041 -0.321931
-0.254861 -0.332993 -0.321931
-0.148659 -0.356568 -0.321931
-0.0600398 -0.351293 -0.321931
0.0546775 -0.35994 -0.321931
0.170347 -0.345369 -0.321931
0.232875 -0.352885 -0.321931
0.357749 -0.347756 -0.315158
-0.479418 -0.249459 -0.315131
-0.353858 -0.251955 -0.321931
-0.258621 -0.232801 -0.321931
-0.147485 -0.247535 -0.321931
-0.0216918 -0.257629 -0.321931
0.0657791 -0.250393 -0.321931
0.169327 -0.250799 -0.321931
0.241785 -0.244883 -0.321931
0.361241 -0.248178 -0.314455
-0.48023 -0.151483 -0.31498
-0.351822 -0.150289 -0.321931
-0.265671 -0.138502 -0.321931
-0.159136 -0.143659 -0.321931
-0.0434768 -0.150289 -0.321931
0.0411088 -0.175021 -0.321931
0.16773 -0.154297 -0.321931
0.242678 -0.144985 -0.321931
0.36285 -0.150403 -0.314111
-0.478777 -0.0525126 -0.315702
-0.353938 -0.0471495 -0.321931
-0.249867 -0.0388983 -0.321931
-0.152206 -0.0243115 -0.321931
-0.0538943 -0.0442027 -0.321931
0.0612809 -0.0621754 -0.321931
0.156193 -0.042029 -0.321931
0.249088 -0.0353621 -0.321931
0.363799 -0.0421284 -0.313889
-0.453471 0.0150411 -0.312881
-0.357352 0.000558695 -0.307601
-0.275669 0.000857663 -0.307444
-0.142099 0.00442027 -0.313751
-0.0492425 0.0037888 -0.313128
0.0536284 0.0165073 -0.315855
0.160665 0.0113002 -0.317511
0.258083 0.00169785 -0.316488
0.346541 0.00795096 -0.311657
-0.478223 0.173052 -0.315536
-0.35978 0.150289 -0.321931
-0.241196 0.143659 -0.321931
-0.150384 0.154709 -0.321931
-0.0578564 0.143974 -0.321931
0.0331514 0.165176 -0.321931
0.154473 0.176619 -0.321931
0.256088 0.141448 -0.321931
0.358541 0.152651 -0.315111
-0.477631 0.264833 -0.315162
-0.338805 0.244588 -0.321931
-0.231115 0.229854 -0.321931
-0.159076 0.250482 -0.321931
-0.03107 0.257294 -0.321931
0.055911 0.250393 -0.321931
0.164755 0.266121 -0.321931
0.253788 0.239677 -0.321931
0.357615 0.250613 -0.315308
-0.476345 0.35558 -0.315277
-0.345602 0.356568 -0.321931
-0.248031 0.34036 -0.321931
-0.151406 0.350085 -0.321931
-0.0601682 0.35363 -0.321931
0.0476875 0.348762 -0.321931
0.172337 0.355018 -0.321931
0.244914 0.346388 -0.321931
0.35664 0.348775 -0.315441
-0.475205 0.446442 -0.31531
-0.351365 0.477389 -0.321931
-0.263655 0.461918 -0.321931
-0.125804 0.448985 -0.321931
-0.050994 0.444149 -0.321931
0.0641345 0.456073 -0.321931
0.16162 0.445042 -0.321931
0.232357 0.449209 -0.321931
0.355672 0.447452 -0.315602
-0.473895 0.537286 -0.315477
-0.34206 0.556953 -0.321931
-0.252024 0.561374 -0.321931
-0.158532 0.540156 -0.321931
-0.0427706 0.547734 -0.321931
0.055911 0.554441 -0.321931
0.15885 0.534651 -0.321931
0.234391 0.53468 -0.321931
0.354969 0.546265 -0.315732
-0.474562 0.628278 -0.315532
-0.38052 0.623257 -0.321931
-0.219895 0.629961 -0.321931
-0.146386 0.645656 -0.321931
-0.050994 0.649829 -0.321931
0.0476875 0.646848 -0.321931
0.158398 0.624107 -0.321931
0.244104 0.620302 -0.321931
0.353912 0.643844 -0.315746
-0.47482 0.723286 -0.315884
-0.371151 0.764543 -0.321931
-0.253839 0.729805 -0.321931
-0.146386 0.745813 -0.321931
-0.0427706 0.748943 -0.321931
0.055911 0.742236 -0.321931
0.156488 0.713658 -0.321931
0.262704 0.750864 -0.321931
0.352711 0.745128 -0.315788
-0.472821 0.88642 -0.315923
-0.376214 0.889157 -0.342748
-0.250707 0.883948 -0.321918
-0.148952 0.886644 -0.321917
-0.0467178 0.891981 -0.321915
0.0519258 0.890914 -0.321914
0.161588 0.889255 -0.321921
0.283788 0.89004 -0.341204
0.33072 0.887983 -0.330415
-0.477229 0.983494 -0.309602
-0.36859 0.932974 -0.331127
-0.256027 0.977745 -0.314855
-0.14396 0.977755 -0.315128
-0.0503215 0.977527 -0.314876
0.0481247 0.979921 -0.314774
0.150261 0.980315 -0.314521
0.260743 0.959411 -0.320995
0.353876 0.979326 -0.310695
-0.47208 1 -0.305106
-0.346764 1 -0.307747
-0.257385 1 -0.307747
-0.138214 1 -0.307747
-0.048835 1 -0.307747
0.0405436 1 -0.307747
0.161075 1 -0.307747
0.254532 1 -0.307747
0.349871 1 -0.304573
-0.48162 -0.984905 -0.280344
-0.354192 -0.983578 -0.271329
-0.255606 -0.98312 -0.271238
-0.150285 -0.982591 -0.270701
-0.0519648 -0.981992 -0.270027
0.0515687 -0.981208 -0.269328
0.14954 -0.984662 -0.269103
0.266576 -0.985528 -0.269561
0.370994 -0.985965 -0.249301
0.41479 -0.984042 -0.241128
-0.486957 -0.885746 -0.275753
-0.352688 -0.891792 -0.260938
-0.257996 -0.889755 -0.260933
-0.147459 -0.888457 -0.260934
-0.0470414 -0.887874 -0.26093
0.0548367 -0.885505 -0.260928
0.15566 -0.88195 -0.260928
0.263891 -0.889407 -0.260932
0.364531 -0.885967 -0.242905
0.420623 -0.885681 -0.247007
-0.487408 -0.743229 -0.275723
-0.347516 -0.715408 -0.260918
-0.252028 -0.751179 -0.260918
-0.146594 -0.742236 -0.260918
-0.0446412 -0.753414 -0.260918
0.0548961 -0.751179 -0.260918
0.159313 -0.743288 -0.260918
0.256748 -0.733932 -0.260918
0.363991 -0.743894 -0.242216
0.420186 -0.743574 -0.24812
-0.475772 -0.644512 -0.236703
-0.35208 -0.653702 -0.241955
-0.249377 -0.652989 -0.243439
-0.144941 -0.652242 -0.243776
-0.0493239 -0.652739 -0.243145
0.0461642 -0.653272 -0.242907
0.154822 -0.653279 -0.242728
0.25846 -0.644259 -0.236322
0.363966 -0.645345 -0.241871
0.420264 -0.644887 -0.248376
-0.474117 -0.554172 -0.248688
-0.352642 -0.556048 -0.260641
-0.252747 -0.55543 -0.260643
-0.143271 -0.556383 -0.260639
-0.0431086 -0.554753 -0.260654
0.0493361 -0.5595 -0.260614
0.155648 -0.553671 -0.260656
0.259724 -0.556306 -0.245944
0.363794 -0.547356 -0.241316
0.42036 -0.547087 -0.248285
-0.476317 -0.451785 -0.249677
-0.354924 -0.448621 -0.260918
-0.253102 -0.447967 -0.260918
-0.149414 -0.448251 -0.260918
-0.0462065 -0.452387 -0.260918
0.0514955 -0.443195 -0.260918
0.157145 -0.449537 -0.260912
0.260226 -0.443677 -0.245271
0.363867 -0.447244 -0.242136
0.4208 -0.447641 -0.247318
-0.477481 -0.355145 -0.248887
-0.353842 -0.358795 -0.260918
-0.252522 -0.359833 -0.260918
-0.144425 -0.361019 -0.260918
-0.0425731 -0.357419 -0.260918
0.050814 -0.360234 -0.260918
0.157161 -0.359104 -0.260913
0.258561 -0.357628 -0.248058
0.363942 -0.347556 -0.241295
0.420588 -0.34791 -0.248054
-0.474366 -0.244185 -0.252568
-0.350858 -0.244445 -0.260918
-0.255731 -0.241726 -0.260918
-0.140013 -0.242342 -0.260918
-0.0433677 -0.247609 -0.260918
0.0482931 -0.241758 -0.260918
0.152031 -0.242539 -0.260914
0.261126 -0.244383 -0.245055
0.364243 -0.249509 -0.241212
0.421018 -0.249482 -0.247388
-0.47882 -0.155098 -0.25066
-0.353748 -0.15434 -0.260918
-0.254602 -0.155306 -0.260918
-0.146199 -0.155473 -0.260918
-0.0448772 -0.155421 -0.260918
0.0486672 -0.153723 -0.260918
0.15473 -0.156012 -0.260912
0.258957 -0.150367 -0.247412
0.364475 -0.151296 -0.241287
0.421177 -0.151367 -0.247033
-0.475051 -0.0494883 -0.256945
-0.355123 -0.0457173 -0.260918
-0.250725 -0.0435649 -0.260918
-0.148332 -0.0431247 -0.260918
-0.0438603 -0.0478744 -0.260919
0.0510068 -0.0449023 -0.260918
0.158565 -0.0451241 -0.260914
0.261753 -0.0444591 -0.245104
0.365173 -0.0508414 -0.24248
0.421225 -0.0512998 -0.245531
-0.465501 0.0252744 -0.261937
-0.346775 0.00548617 -0.275302
-0.250672 0.00496579 -0.275365
-0.149368 0.00424955 -0.273707
-0.0561126 0.00669591 -0.26969
0.0395337 0.00603896 -0.266097
0.159687 0.0152829 -0.269742
0.258668 0.0196506 -0.262959
0.371196 0.00412748 -0.247651
0.413929 0.00373041 -0.234333
-0.476005 0.155566 -0.253158
-0.351389 0.15718 -0.260918
-0.256896 0.15734 -0.260918
-0.142119 0.158789 -0.260918
-0.0439812 0.156705 -0.260918
0.0519249 0.157927 -0.260918
0.151801 0.159066 -0.260913
0.261461 0.158057 -0.244673
0.364237 0.16788 -0.242715
0.420067 0.168946 -0.247612
-0.47748 0.247762 -0.249468
-0.352423 0.245748 -0.260918
-0.254175 0.243807 -0.260918
-0.142251 0.243719 -0.260918
-0.0431673 0.248176 -0.260918
0.0466787 0.245276 -0.260918
0.153479 0.24429 -0.260913
0.258265 0.244557 -0.247673
0.36383 0.261885 -0.241366
0.420407 0.262594 -0.248138
-0.474911 0.356535 -0.252518
-0.355076 0.358587 -0.260918
-0.250531 0.359921 -0.260918
-0.147005 0.360739 -0.260918
-0.042719 0.357524 -0.260918
0.0501641 0.358344 -0.260918
0.158979 0.360313 -0.260913
0.261098 0.356778 -0.244835
0.363746 0.354306 -0.241132
0.420571 0.35488 -0.24841
-0.477202 0.443532 -0.248866
-0.3526 0.447079 -0.260918
-0.254993 0.446434 -0.260918
-0.146028 0.446681 -0.260918
-0.0461841 0.450333 -0.260918
0.0524645 0.441607 -0.260918
0.155118 0.448178 -0.260912
0.259633 0.451494 -0.24643
0.363938 0.447165 -0.241386
0.420887 0.447209 -0.247565
-0.475037 0.554951 -0.247982
-0.353427 0.556216 -0.260642
-0.252531 0.555003 -0.260652
-0.144545 0.555927 -0.260644
-0.0440677 0.552171 -0.260668
0.0511908 0.557332 -0.260638
0.15618 0.553294 -0.260659
0.259835 0.553599 -0.245661
0.363852 0.540052 -0.241238
0.420794 0.539484 -0.247934
-0.475868 0.643914 -0.236746
-0.352048 0.652887 -0.242353
-0.250121 0.652221 -0.243038
-0.1455 0.651286 -0.244349
-0.0495968 0.651873 -0.242626
0.0463519 0.652009 -0.243249
0.155934 0.652065 -0.24352
0.258578 0.643693 -0.236299
0.364188 0.632324 -0.241148
0.42086 0.631892 -0.247411
-0.485526 0.723998 -0.275389
-0.377356 0.715408 -0.260918
-0.252028 0.715408 -0.260918
-0.132669 0.715408 -0.260918
-0.0371812 0.715408 -0.260918
0.0583064 0.715408 -0.260918
0.15222 0.722562 -0.260918
0.265834 0.735281 -0.260918
0.364287 0.725973 -0.241493
0.420424 0.725865 -0.247798
-0.48575 0.885516 -0.27527
-0.347847 0.891021 -0.26093
-0.259805 0.890811 -0.260931
-0.141518 0.890383 -0.260934
-0.0504944 0.882497 -0.260932
0.0398341 0.88786 -0.260932
0.155535 0.878298 -0.260931
0.261143 0.880407 -0.260932
0.364449 0.886121 -0.242137
0.420728 0.886221 -0.24702
-0.481528 0.984748 -0.280302
-0.350362 0.985276 -0.271975
-0.256728 0.982066 -0.270744
-0.142633 0.981342 -0.270285
-0.0513481 0.982983 -0.270453
0.0440359 0.981362 -0.269663
0.149755 0.987898 -0.269773
0.264866 0.983548 -0.269345
0.371026 0.985661 -0.24921
0.414796 0.983984 -0.24114
-0.477151 1 -0.284831
-0.346764 1 -0.275102
-0.257385 1 -0.275102
-0.138214 1 -0.275102
-0.048835 1 -0.275102
0.0405436 1 -0.275102
0.160607 1 -0.275102
0.260173 1 -0.275102
0.37449 1 -0.255108
0.410184 1 -0.234696
0.366694 -0.986081 -0.160686
0.411115 -0.983591 -0.184775
0.350093 -0.887315 -0.138355
0.417809 -0.886376 -0.181712
0.351234 -0.74532 -0.135131
0.416943 -0.744709 -0.180329
-0.478231 -0.647247 -0.152485
-0.352401 -0.665773 -0.150448
-0.24664 -0.665774 -0.151001
-0.146556 -0.665774 -0.149599
-0.0552731 -0.665774 -0.150862
0.0457773 -0.665774 -0.147807
0.157441 -0.665733 -0.152184
0.260391 -0.64691 -0.152531
0.352782 -0.645423 -0.13754
0.417641 -0.646284 -0.181687
-0.492443 -0.556594 -0.151586
0.272401 -0.556674 -0.151883
0.353096 -0.547531 -0.141236
0.4179 -0.546265 -0.182146
-0.493133 -0.456437 -0.151401
0.273081 -0.439581 -0.151679
0.357332 -0.447943 -0.144016
0.418526 -0.44713 -0.183151
-0.493133 -0.354407 -0.151875
0.273082 -0.354514 -0.151467
0.355294 -0.347542 -0.145078
0.418491 -0.346462 -0.183251
-0.493133 -0.24545 -0.151128
0.273081 -0.246565 -0.151924
0.355305 -0.248449 -0.146574
0.419188 -0.248943 -0.184481
-0.493133 -0.15466 -0.152357
0.273083 -0.144137 -0.150498
0.357868 -0.149938 -0.151381
0.41986 -0.150469 -0.185632
-0.493133 -0.0561103 -0.150362
0.273081 -0.0427832 -0.152813
0.355555 -0.0554441 -0.157751
0.418889 -0.0485268 -0.183441
-0.493133 0.0390305 -0.152274
0.273083 0.0452617 -0.149945
0.366489 0.001466 -0.144127
0.412111 0.00641168 -0.180702
-0.493133 0.145745 -0.150498
0.273081 0.156264 -0.152357
0.345388 0.178852 -0.134797
0.416279 0.164015 -0.178886
-0.493133 0.247719 -0.152022
0.273082 0.246986 -0.151128
0.351739 0.268278 -0.137239
0.417513 0.2591 -0.181478
-0.493133 0.353309 -0.151263
0.273081 0.355801 -0.151875
0.353839 0.357704 -0.139556
0.41842 0.35287 -0.183285
-0.493133 0.439618 -0.151725
0.273081 0.456591 -0.151603
0.355632 0.44713 -0.142746
0.418671 0.44713 -0.183604
-0.492413 0.557326 -0.151883
0.272439 0.556583 -0.151481
0.355332 0.536556 -0.147842
0.418658 0.54139 -0.183581
-0.478076 0.646892 -0.152588
-0.351361 0.664956 -0.151014
-0.246638 0.664957 -0.151518
-0.145085 0.664958 -0.150953
-0.0544884 0.664959 -0.150222
0.0454408 0.664957 -0.150884
0.154705 0.664927 -0.151609
0.260335 0.646461 -0.152618
0.357358 0.625982 -0.150059
0.418874 0.635408 -0.183758
0.356235 0.715408 -0.152615
0.418908 0.73059 -0.183692
0.354995 0.887091 -0.146635
0.418145 0.8862 -0.182462
0.366586 0.986125 -0.160147
0.41116 0.983561 -0.184825
0.367641 1 -0.153834
0.405621 1 -0.188735
0.29273 -0.981083 -0.0313084
0.320006 -0.985764 -0.0468865
0.288248 -0.88554 -0.0419527
0.328838 -0.886105 -0.042004
0.288085 -0.743245 -0.0408144
0.328392 -0.743202 -0.0402612
-0.469359 -0.641784 -0.0398512
-0.35757 -0.653109 -0.0270168
-0.242951 -0.651778 -0.029131
-0.136649 -0.650845 -0.0285207
-0.0537431 -0.650167 -0.029712
0.0410401 -0.651911 -0.0289218
0.151115 -0.653317 -0.0274588
0.252767 -0.641592 -0.0399433
0.328569 -0.645092 -0.0409408
-0.475897 -0.559135 -0.0254386
-0.363202 -0.570642 -0.00254366
-0.252079 -0.583511 -0.00211991
-0.150232 -0.585023 -0.00221014
-0.0480163 -0.585382 -0.00233451
0.0556091 -0.583167 -0.00227845
0.162565 -0.566155 -0.00316512
0.259552 -0.55907 -0.0270779
0.328552 -0.54685 -0.0416046
-0.474371 -0.45085 -0.0262586
-0.396713 -0.487324 -0.000328201
0.18987 -0.446253 -0.001544
0.258826 -0.448482 -0.0285861
0.328571 -0.447001 -0.0416223
-0.476679 -0.365422 -0.0270192
0.192658 -0.363729 -0.00145767
0.259487 -0.365896 -0.0259724
0.328823 -0.347401 -0.0424039
-0.476491 -0.235059 -0.0246368
0.191096 -0.249452 -0.0011459
0.261071 -0.235224 -0.0285861
0.329011 -0.249419 -0.0426664
-0.478126 -0.153795 -0.0300105
0.19262 -0.14004 -0.00141124
0.260078 -0.153362 -0.0278369
0.329296 -0.151063 -0.0435408
-0.473911 -0.0454143 -0.023843
0.193632 -0.0516551 -0.00158733
0.26145 -0.0446996 -0.0310924
0.329773 -0.0518103 -0.0433682
-0.478844 0.0285344 -0.0277255
0.192554 0.0492988 -0.00140028
0.27109 0.0220304 -0.0277041
0.320589 0.0030732 -0.0426476
-0.475258 0.154505 -0.0257928
0.190853 0.150302 -0.00110468
0.259524 0.157318 -0.0297845
0.329081 0.170692 -0.0403977
-0.478619 0.236007 -0.027594
0.191177 0.246945 -0.00116073
0.261215 0.236544 -0.02691
0.328504 0.263658 -0.0412533
-0.475817 0.366541 -0.024496
0.192452 0.360615 -0.00140816
0.260442 0.364853 -0.0281922
0.328545 0.355319 -0.041269
-0.47394 0.44833 -0.026953
-0.396683 0.484959 -0.000342298
0.189066 0.459748 -0.00157284
0.25834 0.452342 -0.0276836
0.328578 0.447129 -0.0421726
-0.476475 0.559059 -0.0259609
-0.362668 0.572182 -0.00269569
-0.256101 0.583247 -0.00224206
-0.146192 0.585938 -0.00250672
-0.055328 0.587434 -0.00277707
0.0532663 0.582452 -0.00227811
0.161986 0.566288 -0.0031983
0.259397 0.559373 -0.0266296
0.328986 0.538925 -0.0428742
-0.469438 0.641434 -0.0398351
-0.358014 0.652579 -0.0271927
-0.243733 0.65085 -0.0289324
-0.136164 0.650325 -0.028467
-0.0515526 0.650189 -0.0298002
0.0400027 0.650911 -0.0287281
0.150148 0.652469 -0.0274813
0.252695 0.641363 -0.0401483
0.329073 0.630541 -0.0429502
0.288177 0.721746 -0.0420077
0.329235 0.723418 -0.0426983
0.288068 0.885902 -0.041039
0.329149 0.885576 -0.0411027
0.292745 0.980997 -0.031392
0.31998 0.985674 -0.0468546
0.29749 1 -0.0182886
0.315004 1 -0.0473745
0.292466 -0.981732 0.0292372
0.317214 -0.985841 0.0448826
0.287984 -0.885672 0.0409083
0.325837 -0.88617 0.039784
0.288178 -0.742018 0.0422779
0.324816 -0.742762 0.0403596
0.288084 -0.643958 0.0417688
0.324935 -0.644668 0.0397772
-0.339496 -0.525444 0.00140778
-0.249908 -0.533865 0.00342069
-0.151689 -0.534247 0.00531762
-0.0503738 -0.535344 0.0049169
0.0448563 -0.535895 0.00275412
0.131586 -0.524039 0.000871691
0.287995 -0.545974 0.0411827
0.32509 -0.547118 0.0391524
-0.400521 -0.413172 5.24251e-05
-0.352399 -0.448323 0.00346774
-0.251646 -0.453303 0.00966426
-0.151015 -0.455375 0.0144164
-0.0478177 -0.457509 0.0135061
0.0492984 -0.455853 0.00836593
0.142747 -0.448069 0.00268755
0.288039 -0.446847 0.0412495
0.325825 -0.446707 0.0391011
-0.401842 -0.354914 0.000214037
-0.343967 -0.350662 0.00618373
-0.245244 -0.354682 0.015076
-0.148545 -0.352594 0.0205553
-0.0505005 -0.351502 0.0198669
0.0440599 -0.353737 0.0134625
0.135434 -0.349668 0.00508985
0.287843 -0.34781 0.040506
0.325345 -0.347028 0.0384667
-0.40236 -0.251813 0.000373751
-0.362285 -0.249253 0.00538655
-0.245175 -0.247618 0.0177988
-0.157772 -0.25692 0.0228883
-0.0431319 -0.254119 0.0222092
0.0470477 -0.249792 0.0156799
0.15829 -0.249925 0.00336298
0.287838 -0.250216 0.0402409
0.326012 -0.249153 0.0384598
-0.40224 -0.15008 0.000401753
-0.354742 -0.151993 0.00686234
-0.240436 -0.15632 0.0197293
-0.150316 -0.153314 0.0245196
-0.0466369 -0.157578 0.0238009
0.0399695 -0.15328 0.0178644
0.143945 -0.146951 0.00565379
0.28779 -0.151885 0.0399763
0.326175 -0.150458 0.0379759
-0.402369 -0.0497512 0.000379716
-0.348405 -0.0452479 0.00818358
-0.242773 -0.0421901 0.020273
-0.146488 -0.0415516 0.0251731
-0.0502988 -0.042361 0.0244972
0.0415 -0.0422446 0.0184729
0.145022 -0.0462047 0.00595619
0.287931 -0.0563113 0.0402164
0.327149 -0.0509692 0.0381129
-0.402419 0.0469171 0.000371322
-0.352111 0.0396179 0.0077214
-0.245207 0.0441252 0.0200059
-0.150985 0.0480399 0.0250681
-0.0505446 0.0570754 0.0244612
0.0448468 0.0580499 0.0180246
0.143466 0.0463916 0.00613868
0.291766 0.00788162 0.0315535
0.318167 0.00346673 0.0366362
-0.4024 0.150298 0.000374464
-0.352239 0.153476 0.00715902
-0.243279 0.152442 0.0194939
-0.147513 0.150944 0.0245272
-0.0481739 0.146922 0.0239179
0.0432636 0.149372 0.0175531
0.155028 0.154313 0.0041824
0.288227 0.178852 0.0424357
0.325197 0.170029 0.0397312
-0.402345 0.25708 0.000377801
-0.35379 0.247326 0.00630409
-0.242649 0.249429 0.0179434
-0.153298 0.25222 0.0230001
-0.0463805 0.253389 0.0222927
0.0417868 0.250405 0.0161216
0.149696 0.247954 0.00439195
0.28819 0.268278 0.0421235
0.325047 0.263104 0.039204
-0.401963 0.345749 0.00021654
-0.352429 0.35328 0.0053844
-0.246689 0.350669 0.0150251
-0.151539 0.351986 0.0204001
-0.0478836 0.351529 0.0196624
0.0469914 0.352063 0.0131855
0.141196 0.349354 0.00449744
0.288038 0.357704 0.0414421
0.325022 0.354853 0.0394174
-0.400692 0.402355 9.62275e-05
-0.353314 0.451458 0.00326006
-0.253032 0.451837 0.00951931
-0.152392 0.453866 0.0143168
-0.0499082 0.454559 0.0136177
0.0513473 0.454433 0.00817227
0.14151 0.44622 0.00276432
0.287887 0.44713 0.0407607
0.325215 0.447066 0.0393668
-0.335479 0.52465 0.00146338
-0.246634 0.534775 0.0032375
-0.147924 0.533417 0.00532802
-0.0527292 0.532066 0.00518358
0.0454677 0.53395 0.00275464
0.129506 0.521509 0.000946773
0.287851 0.536556 0.040462
0.325174 0.539302 0.0385934
0.287813 0.625981 0.0401649
0.325419 0.63102 0.0382549
0.287995 0.715408 0.0406092
0.326106 0.724172 0.037207
0.288054 0.884562 0.0413597
0.325536 0.885681 0.0394702
0.292458 0.981783 0.029133
0.317199 0.985877 0.0448292
0.297433 1 0.0181231
0.312539 1 0.0457247
0.355837 -0.982379 0.143706
0.405602 -0.9689 0.189128
0.346605 -0.88823 0.137779
0.409864 -0.89358 0.185227
0.343414 -0.746472 0.138767
0.408638 -0.769064 0.183055
0.34758 -0.646252 0.141088
0.408638 -0.679638 0.183055
0.350001 -0.54486 0.143584
0.405503 -0.54848 0.17757
0.349249 -0.449194 0.147148
0.415432 -0.432226 0.194939
0.351645 -0.347484 0.140176
0.402367 -0.357704 0.172085
0.356211 -0.247641 0.145709
0.410206 -0.268278 0.185797
0.357853 -0.149789 0.143905
0.412297 -0.152024 0.189454
0.355963 -0.0398691 0.142447
0.408246 -0.0335348 0.182369
0.353264 0.00198256 0.144563
0.409381 0.00569075 0.193326
0.347739 0.145435 0.150918
0.410206 0.145317 0.185797
0.35266 0.245283 0.154506
0.410206 0.243686 0.185797
0.352719 0.346698 0.15317
0.410206 0.342055 0.185797
0.349888 0.447875 0.153879
0.410206 0.451601 0.185797
0.354553 0.54825 0.149588
0.412819 0.563384 0.190368
0.354509 0.649616 0.157733
0.408638 0.645656 0.183055
0.361039 0.749296 0.150896
0.408638 0.745813 0.183055
0.350799 0.887093 0.144853
0.410447 0.888614 0.186247
0.357163 0.982973 0.146254
0.406529 0.945498 0.185986
0.361033 1 0.14906
0.388792 -0.978267 0.222047
0.425546 -0.984224 0.280129
0.385512 -0.88558 0.230454
0.419273 -0.886227 0.282244
0.385339 -0.727928 0.230185
0.420757 -0.743309 0.282291
0.379061 -0.63716 0.219267
0.420063 -0.644762 0.282181
0.387738 -0.534321 0.234357
0.420226 -0.546892 0.283301
0.382634 -0.444894 0.225481
0.418334 -0.447368 0.282173
0.386292 -0.3428 0.231842
0.420105 -0.348074 0.282091
0.384761 -0.23996 0.229179
0.418295 -0.24952 0.281483
0.386746 -0.14805 0.232631
0.417974 -0.150809 0.282017
0.388067 -0.0389642 0.234928
0.417555 -0.0554038 0.280968
0.392537 0.00178852 0.216141
0.428035 0.00560277 0.27662
0.385441 0.15426 0.230363
0.421838 0.174124 0.281895
0.387994 0.248157 0.234801
0.41947 0.266447 0.282457
0.385441 0.342055 0.230363
0.419562 0.357381 0.283672
0.390546 0.438188 0.239239
0.418709 0.447238 0.283234
0.385952 0.540133 0.23125
0.418872 0.537089 0.282565
0.385441 0.655046 0.230363
0.418857 0.627259 0.282566
0.384591 0.750185 0.228883
0.418467 0.717431 0.281914
0.387783 0.882183 0.234411
0.419377 0.885853 0.282157
0.389029 0.978939 0.222254
0.425472 0.984339 0.279778
0.390284 1 0.210083
0.430852 1 0.277363
0.473338 -0.983177 0.339644
0.470976 -0.885378 0.342591
0.471325 -0.742672 0.342639
0.471248 -0.644327 0.34269
0.471167 -0.54658 0.34291
0.471002 -0.447227 0.34267
0.470975 -0.347702 0.3429
0.47075 -0.249972 0.342788
0.470656 -0.151783 0.342776
0.470618 -0.0565182 0.342625
0.474736 0.00397267 0.34063
0.471257 0.17883 0.342859
0.471212 0.268234 0.342884
0.471168 0.357637 0.342909
0.471147 0.447151 0.342851
0.470969 0.536645 0.342854
0.470815 0.626046 0.342774
0.470661 0.715451 0.342694
0.470945 0.885206 0.342646
0.473405 0.983966 0.339706
0.474264 1 0.336279
