# .PCD v.7 - Point Cloud Data file format
VERSION .7
FIELDS x y z
SIZE 4 4 4
TYPE F F F
COUNT 1 1 1
WIDTH 1662
HEIGHT 1
VIEWPOINT 0 0 0 1 0 0 0
POINTS 1662
DATA ascii
0.449579 0.453594 -0.867981
0.550636 0.454644 -0.868068
0.61212 0.430364 -0.854675
0.999292 0.456684 -0.833607
-0.726519 0.548971 -0.842465
-0.421873 0.548642 -0.863769
-0.353391 0.55506 -0.876414
-0.240271 0.578651 -0.878375
-0.145296 0.575493 -0.878112
-0.0430647 0.560325 -0.876851
0.0457429 0.560872 -0.876897
0.128478 0.572132 -0.877833
0.246532 0.568088 -0.877497
0.34757 0.571612 -0.87779
0.449255 0.555562 -0.876456
0.550121 0.559697 -0.8768
0.999292 0.582553 -0.871179
-0.726519 0.651285 -0.844092
-0.407479 0.625283 -0.873981
-0.345512 0.647529 -0.879676
-0.254161 0.653421 -0.88418
-0.14926 0.651127 -0.884398
-0.0463679 0.648063 -0.884143
0.0566099 0.637376 -0.883255
0.151228 0.655304 -0.884745
0.25211 0.65781 -0.884953
0.352347 0.663354 -0.885414
0.453819 0.66654 -0.880635
0.539652 0.650341 -0.873316
0.999292 0.636497 -0.828239
-0.726523 0.759945 -0.842044
-0.553938 0.798328 -0.858297
-0.385672 0.798328 -0.843
-0.248236 0.706446 -0.869462
-0.151941 0.70152 -0.881681
-0.0527639 0.712544 -0.880783
0.0416554 0.701507 -0.879256
0.139305 0.709404 -0.877021
0.25026 0.70142 -0.879575
0.352872 0.706729 -0.876759
0.429882 0.707372 -0.867049
0.516065 0.798328 -0.806769
0.659883 0.798328 -0.844342
0.792195 0.798328 -0.871179
0.838217 0.798328 -0.833607
0.987787 0.786341 -0.860444
-0.726518 -0.909983 -0.770908
-0.622496 -0.909255 -0.761382
-0.53668 -0.9998 -0.710154
-0.471384 -0.946012 -0.777774
-0.333746 -0.951391 -0.750711
-0.208776 -0.9998 -0.774564
-0.158683 -0.946012 -0.741431
-0.0221399 -0.972906 -0.725529
0.0307474 -0.919118 -0.725128
0.131275 -0.939289 -0.752931
0.258594 -0.946012 -0.772758
0.343003 -0.972906 -0.731423
0.456266 -0.959459 -0.737506
0.555053 -0.959459 -0.733217
0.650225 -0.97963 -0.734157
0.742276 -0.919118 -0.75628
0.860865 -0.907456 -0.766042
-0.728741 -0.864159 -0.716099
-0.621487 -0.852257 -0.757365
-0.408064 -0.804142 -0.754345
-0.34403 -0.8257 -0.758016
-0.250443 -0.832918 -0.759733
-0.147447 -0.837684 -0.759486
-0.0473253 -0.841632 -0.759311
0.0542304 -0.845392 -0.759815
0.149405 -0.845051 -0.758852
0.250088 -0.840948 -0.758515
0.34982 -0.83681 -0.757828
0.450936 -0.831632 -0.757162
0.533903 -0.821546 -0.750465
0.860864 -0.833262 -0.755617
-0.73125 -0.750542 -0.708303
-0.621487 -0.749029 -0.75661
-0.424124 -0.777308 -0.758709
-0.345277 -0.776484 -0.765747
-0.240268 -0.777417 -0.765669
-0.137755 -0.776703 -0.765728
-0.0383472 -0.778548 -0.765575
0.0593022 -0.778475 -0.765581
0.161716 -0.777516 -0.76566
0.259413 -0.778401 -0.765587
0.359846 -0.77842 -0.765585
0.46605 -0.779658 -0.765482
0.559626 -0.781071 -0.760508
0.601491 -0.733245 -0.740181
0.860864 -0.744566 -0.760866
-0.731275 -0.643756 -0.708452
-0.621487 -0.641582 -0.753818
-0.440472 -0.665535 -0.774967
-0.352585 -0.662567 -0.775214
-0.248839 -0.668327 -0.774735
-0.134473 -0.659377 -0.775479
-0.032376 -0.65899 -0.775511
0.042788 -0.655548 -0.775797
0.142637 -0.654504 -0.775884
0.238544 -0.65111 -0.776166
0.335992 -0.65198 -0.776094
0.43559 -0.648064 -0.776419
0.52727 -0.652415 -0.776058
0.612915 -0.666808 -0.757172
0.860864 -0.63843 -0.753681
-0.729908 -0.545667 -0.711728
-0.621487 -0.539064 -0.75198
-0.455908 -0.550352 -0.771649
-0.345119 -0.547995 -0.784736
-0.256961 -0.556261 -0.784049
-0.159882 -0.551862 -0.784415
-0.0549664 -0.557132 -0.783977
0.0471042 -0.54756 -0.784772
0.14134 -0.562788 -0.783507
0.235169 -0.559597 -0.783772
0.340054 -0.553618 -0.784269
0.442915 -0.550779 -0.784505
0.543024 -0.552425 -0.784368
0.62896 -0.558879 -0.7672
0.860864 -0.548991 -0.75414
-0.730096 -0.445475 -0.711802
-0.621488 -0.41206 -0.725645
-0.473927 -0.449798 -0.778412
-0.36903 -0.440465 -0.793673
-0.257587 -0.448385 -0.793015
-0.150523 -0.446276 -0.79319
-0.0438593 -0.447434 -0.793094
0.0639429 -0.446608 -0.793163
0.162249 -0.448215 -0.793029
0.244157 -0.465329 -0.791607
0.332038 -0.451696 -0.79274
0.443856 -0.465232 -0.791615
0.554274 -0.462501 -0.791842
0.635744 -0.459818 -0.792065
0.860865 -0.414919 -0.72245
0.999292 -0.496324 -0.710154
-0.729756 -0.348443 -0.714479
-0.621487 -0.375304 -0.774865
-0.544405 -0.312255 -0.751935
-0.462107 -0.365025 -0.786065
-0.368794 -0.355874 -0.773154
-0.258622 -0.366224 -0.79164
-0.155571 -0.351454 -0.775609
-0.0421572 -0.33924 -0.765843
0.0582452 -0.35193 -0.785109
0.142473 -0.344094 -0.772942
0.247459 -0.322535 -0.749374
0.324845 -0.365349 -0.788216
0.425616 -0.33112 -0.757172
0.560933 -0.328635 -0.768122
0.661955 -0.367355 -0.751054
0.716335 -0.312255 -0.768019
0.860866 -0.37392 -0.774461
0.999292 -0.352474 -0.742359
-0.729504 -0.227479 -0.70849
-0.508834 -0.259322 -0.72525
0.668973 -0.245141 -0.740341
0.999292 -0.208624 -0.774564
-0.728879 -0.127801 -0.717907
-0.51349 -0.148486 -0.746635
0.675065 -0.158106 -0.712792
-0.730981 -0.0754932 -0.734537
-0.516064 -0.0770536 -0.74701
0.674274 -0.0342923 -0.756337
-0.732529 0.0479557 -0.729961
-0.507548 0.0601039 -0.735746
0.669476 0.0312615 -0.747567
0.999292 0.0431144 -0.710154
-0.732612 0.149316 -0.728307
-0.501285 0.13877 -0.735175
-0.497758 0.176357 -0.745408
0.660431 0.152406 -0.734886
0.999292 0.168983 -0.758461
-0.732742 0.25428 -0.727703
-0.49003 0.267708 -0.744251
0.65076 0.268101 -0.731706
-0.732742 0.354858 -0.728221
-0.47364 0.352248 -0.754611
0.636953 0.34043 -0.743405
0.999292 0.366778 -0.742359
-0.729888 0.457915 -0.724157
-0.455347 0.440555 -0.743948
0.612551 0.453954 -0.747153
-0.728606 0.558197 -0.709117
-0.428312 0.566761 -0.746174
0.589866 0.561573 -0.741879
0.999292 0.555581 -0.734308
-0.730719 0.651329 -0.709817
-0.409874 0.633211 -0.740482
-0.359367 0.678762 -0.75148
-0.295462 0.699578 -0.735503
0.478294 0.696265 -0.746025
0.549323 0.658014 -0.749656
0.999292 0.690441 -0.774564
-0.728548 0.723293 -0.72209
-0.381357 0.798328 -0.742359
-0.261452 0.712927 -0.747726
-0.140533 0.722134 -0.751579
-0.0467647 0.722168 -0.745751
0.0394015 0.726986 -0.743574
0.143248 0.726881 -0.75776
0.251251 0.715025 -0.742499
0.345819 0.730271 -0.752974
0.438773 0.705204 -0.747702
0.585098 0.798328 -0.742359
0.65413 0.798328 -0.742359
0.766308 0.798328 -0.734308
0.861228 0.798328 -0.742359
0.973405 0.771357 -0.726256
-0.72652 -0.947056 -0.655513
-0.621513 -0.905163 -0.668252
-0.571196 -0.9998 -0.661846
-0.470572 -0.946012 -0.656497
-0.343797 -0.946012 -0.65194
-0.207994 -0.972906 -0.66754
-0.15293 -0.946012 -0.630821
-0.0452822 -0.939289 -0.658292
0.127429 -0.959459 -0.646892
0.248712 -0.946012 -0.646397
0.308968 -0.9998 -0.645743
0.448854 -0.959459 -0.630789
0.544629 -0.919118 -0.673209
0.663747 -0.972906 -0.672908
0.720041 -0.919118 -0.639462
0.857181 -0.909143 -0.678757
0.999292 -0.978223 -0.677948
-0.729783 -0.867919 -0.682769
-0.624209 -0.891616 -0.662831
-0.412589 -0.806164 -0.641725
-0.357565 -0.832719 -0.641923
-0.250537 -0.847152 -0.637875
-0.159673 -0.852581 -0.642309
-0.05806 -0.855072 -0.646713
0.0503701 -0.859296 -0.627393
0.128798 -0.857159 -0.639129
0.247776 -0.854308 -0.653524
0.350729 -0.850559 -0.644768
0.462163 -0.843572 -0.649209
0.540086 -0.824644 -0.646754
0.860864 -0.893341 -0.637483
0.999292 -0.851455 -0.681974
-0.730919 -0.750437 -0.673969
-0.674891 -0.756848 -0.64097
-0.431877 -0.778591 -0.647019
0.588133 -0.788765 -0.644625
0.608172 -0.723415 -0.646454
0.860864 -0.73239 -0.666897
0.999292 -0.748062 -0.677948
-0.731912 -0.646144 -0.678031
-0.664835 -0.652627 -0.645881
-0.46234 -0.641563 -0.661297
0.620786 -0.6542 -0.65042
0.860864 -0.647216 -0.658888
0.999292 -0.652162 -0.677948
-0.731061 -0.546804 -0.674644
-0.664047 -0.561339 -0.651865
-0.480125 -0.550219 -0.64459
0.639158 -0.555028 -0.650346
0.860864 -0.547877 -0.653974
-0.731493 -0.443171 -0.67731
-0.623636 -0.460785 -0.649154
-0.502132 -0.428104 -0.656359
-0.495018 -0.465806 -0.658896
0.65689 -0.455709 -0.663137
0.860866 -0.461069 -0.649045
0.999292 -0.496324 -0.677948
-0.732135 -0.345081 -0.678518
-0.644895 -0.352161 -0.640398
-0.51198 -0.36758 -0.660219
-0.46337 -0.312255 -0.657295
-0.349723 -0.312255 -0.643308
-0.258311 -0.312255 -0.656129
-0.158252 -0.312255 -0.64564
-0.0285466 -0.312255 -0.638646
0.045571 -0.312255 -0.659626
0.134512 -0.312255 -0.649136
0.267924 -0.312255 -0.645639
0.312394 -0.312255 -0.680605
0.425053 -0.312255 -0.644241
0.574276 -0.312255 -0.654964
0.664393 -0.35405 -0.656342
0.731159 -0.312255 -0.642143
0.860864 -0.347538 -0.647384
0.999292 -0.352474 -0.677948
-0.730262 -0.218643 -0.687259
-0.699562 -0.273369 -0.645743
-0.513115 -0.249737 -0.656481
0.672948 -0.255839 -0.657713
0.999292 -0.208624 -0.645743
-0.72899 -0.159981 -0.680321
-0.518268 -0.147252 -0.660825
0.677891 -0.146989 -0.671977
-0.730506 -0.0689625 -0.653937
-0.5202 -0.0637454 -0.669631
0.67834 -0.0403135 -0.687648
0.999292 -0.073764 -0.669897
-0.728055 0.0497561 -0.660548
-0.510809 0.0642878 -0.665
0.673747 0.0359347 -0.656181
0.999292 0.079077 -0.677948
-0.728134 0.149682 -0.660732
-0.50377 0.152161 -0.665195
0.66564 0.130018 -0.66762
0.999292 0.151002 -0.613538
-0.728177 0.252286 -0.660594
-0.495161 0.261218 -0.654709
0.657161 0.252332 -0.623755
0.999292 0.240909 -0.677948
-0.728413 0.363908 -0.663742
-0.479027 0.352231 -0.648647
0.642411 0.335407 -0.657066
0.999292 0.366778 -0.677948
-0.730669 0.439519 -0.660093
-0.459171 0.449054 -0.632996
0.620656 0.437448 -0.656914
0.999292 0.438703 -0.677948
-0.729124 0.549635 -0.68302
-0.699538 0.595888 -0.635586
-0.436983 0.549844 -0.642773
0.587862 0.596123 -0.6068
0.605104 0.516424 -0.631486
0.999292 0.510628 -0.645743
-0.7303 0.653546 -0.674842
-0.699522 0.648622 -0.641204
-0.406983 0.647781 -0.642812
-0.353726 0.684937 -0.64879
-0.296897 0.699937 -0.655431
0.481554 0.696789 -0.652742
0.551245 0.660793 -0.644597
0.999292 0.660472 -0.651111
-0.730324 0.727487 -0.683097
-0.562567 0.798328 -0.694051
-0.381357 0.798328 -0.677948
-0.261024 0.716956 -0.642694
-0.156757 0.703673 -0.651898
-0.0376555 0.741506 -0.654535
0.0345624 0.735239 -0.636683
0.147242 0.735211 -0.660326
0.242834 0.703669 -0.652626
0.349746 0.751116 -0.612685
0.456659 0.725406 -0.651822
0.65413 0.798328 -0.645743
0.723163 0.798328 -0.613538
0.869857 0.798328 -0.637692
0.999292 0.798328 -0.677948
-0.72652 -0.943639 -0.550392
-0.625291 -0.917524 -0.551132
-0.52542 -0.972906 -0.562038
-0.473252 -0.919118 -0.565288
-0.353679 -0.946012 -0.52976
-0.237539 -0.9998 -0.554495
-0.176782 -0.919118 -0.546009
-0.0335967 -0.951391 -0.533027
0.0307474 -0.919118 -0.569372
0.13082 -0.972906 -0.556052
0.2531 -0.919118 -0.538221
0.332309 -0.972906 -0.561243
0.470216 -0.967528 -0.531988
0.564394 -0.919118 -0.569372
0.662362 -0.959459 -0.543674
0.742276 -0.919118 -0.546009
0.851082 -0.932618 -0.543926
0.999292 -0.986314 -0.516923
-0.726667 -0.858663 -0.551812
-0.625721 -0.883791 -0.558809
-0.415687 -0.8084 -0.546127
-0.358556 -0.835117 -0.543775
-0.240871 -0.849468 -0.537295
-0.146396 -0.854693 -0.541673
-0.0562239 -0.856452 -0.558235
0.0473515 -0.86539 -0.50699
0.170012 -0.857459 -0.55242
0.254977 -0.855616 -0.550772
0.361954 -0.851749 -0.539545
0.464471 -0.844411 -0.546492
0.54284 -0.826583 -0.54465
0.860863 -0.886753 -0.547088
0.999292 -0.861944 -0.527658
-0.6605 -0.75188 -0.540758
-0.437349 -0.777811 -0.544133
0.591862 -0.790786 -0.549265
0.613792 -0.719113 -0.537619
0.860864 -0.755937 -0.543077
0.999292 -0.757053 -0.516923
-0.653998 -0.657514 -0.551315
-0.467793 -0.648476 -0.531453
0.629202 -0.644351 -0.523291
0.860864 -0.665965 -0.552628
0.999292 -0.658156 -0.527658
-0.623718 -0.525707 -0.552999
-0.486847 -0.545587 -0.5315
0.645494 -0.553809 -0.532517
0.860865 -0.528358 -0.54864
0.999292 -0.541277 -0.516923
-0.634492 -0.475806 -0.576054
-0.506058 -0.441347 -0.53336
-0.497601 -0.485005 -0.540504
0.663287 -0.4574 -0.533726
0.860865 -0.483119 -0.581202
0.999292 -0.460362 -0.516923
-0.638826 -0.338222 -0.548057
-0.516088 -0.354836 -0.527965
-0.46337 -0.312255 -0.559391
-0.328723 -0.312255 -0.556477
-0.206429 -0.312255 -0.575708
-0.166899 -0.312255 -0.545405
-0.0285466 -0.312255 -0.566384
0.045571 -0.312255 -0.554729
0.119689 -0.312255 -0.545988
0.267924 -0.312255 -0.558226
0.356865 -0.312255 -0.526757
0.416159 -0.312255 -0.537246
0.545865 -0.312255 -0.535498
0.673405 -0.342112 -0.540199
0.742276 -0.312255 -0.547736
0.860864 -0.342895 -0.552502
0.999292 -0.334493 -0.541077
-0.722973 -0.231618 -0.550875
-0.699513 -0.266987 -0.534013
-0.519229 -0.254252 -0.540827
0.679358 -0.25562 -0.54121
0.999292 -0.208624 -0.516923
-0.729965 -0.159709 -0.553573
-0.524799 -0.140847 -0.548043
0.684807 -0.142763 -0.550092
-0.730444 -0.0899661 -0.545531
-0.526893 -0.0623016 -0.555149
0.686779 -0.0553439 -0.552925
0.999292 -0.0827546 -0.516923
-0.72652 0.0425553 -0.527106
-0.518961 0.0332692 -0.553413
0.679364 0.0314044 -0.552784
0.999292 0.0431144 -0.533025
-0.72652 0.148191 -0.550537
-0.509745 0.148792 -0.552943
0.670078 0.147481 -0.552834
0.999292 0.168983 -0.516923
-0.72652 0.259109 -0.54468
-0.502778 0.236886 -0.551378
-0.496901 0.285634 -0.574388
0.660417 0.25761 -0.56732
0.999292 0.276871 -0.516923
-0.72652 0.368266 -0.55249
-0.485796 0.345835 -0.542266
0.645586 0.344912 -0.55467
0.999292 0.348796 -0.597436
-0.730605 0.46373 -0.549368
-0.460676 0.457991 -0.565878
0.623836 0.445244 -0.561587
0.999292 0.429712 -0.516923
-0.726207 0.557521 -0.550672
-0.699534 0.592692 -0.545186
-0.439982 0.549599 -0.582452
0.598211 0.558077 -0.592292
0.607272 0.516417 -0.58883
0.999292 0.564572 -0.533025
-0.715098 0.694538 -0.550231
-0.699513 0.655921 -0.540841
-0.412981 0.640837 -0.582159
-0.353079 0.686249 -0.580114
0.480798 0.697697 -0.581038
0.549988 0.663594 -0.579605
0.999292 0.672459 -0.516923
-0.730157 0.741747 -0.555727
-0.571196 0.798328 -0.549128
-0.415873 0.798328 -0.549128
-0.381357 0.798328 -0.549128
-0.265526 0.722555 -0.573078
-0.147124 0.704261 -0.549911
-0.0556265 0.735561 -0.562047
0.0648482 0.704198 -0.560838
0.151316 0.735561 -0.562047
0.267045 0.735435 -0.581217
0.308968 0.798328 -0.516923
0.451829 0.711209 -0.587667
0.567839 0.798328 -0.597436
0.65413 0.798328 -0.516923
0.792195 0.798328 -0.549128
0.826711 0.798328 -0.56523
0.988938 0.78754 -0.536246
-0.72652 -0.934497 -0.44575
-0.624487 -0.918697 -0.445236
-0.553372 -0.972906 -0.456315
-0.47045 -0.959459 -0.445313
-0.350752 -0.959459 -0.446598
-0.208776 -0.9998 -0.43641
-0.158683 -0.946012 -0.462749
-0.0323707 -0.959459 -0.432537
0.12682 -0.959459 -0.460453
0.236671 -0.959459 -0.448113
0.308968 -0.9998 -0.452512
0.448854 -0.959459 -0.440062
0.554037 -0.946012 -0.44163
0.65413 -0.9998 -0.420307
0.732719 -0.959459 -0.432537
0.859027 -0.931617 -0.437977
-0.726575 -0.857888 -0.443973
-0.62352 -0.880646 -0.447625
-0.417151 -0.810695 -0.474065
-0.359375 -0.836558 -0.474747
-0.245391 -0.850181 -0.473635
-0.148157 -0.85577 -0.472481
-0.0332867 -0.859286 -0.488783
0.0493901 -0.866357 -0.493715
0.151565 -0.862213 -0.493465
0.249378 -0.85686 -0.455086
0.350405 -0.854478 -0.453084
0.453869 -0.84581 -0.45445
0.550646 -0.824741 -0.461451
0.860864 -0.882102 -0.448517
0.999292 -0.873931 -0.404205
-0.663501 -0.760023 -0.435524
-0.43911 -0.78024 -0.479167
0.5948 -0.791682 -0.480391
0.609035 -0.747767 -0.486142
0.860864 -0.757121 -0.423976
0.999292 -0.7121 -0.420307
-0.625099 -0.622252 -0.415544
-0.475429 -0.635523 -0.430475
0.631985 -0.650716 -0.446901
0.860864 -0.618007 -0.419522
-0.624242 -0.573895 -0.472509
-0.488326 -0.560327 -0.450332
0.651398 -0.550427 -0.430743
0.860863 -0.575714 -0.470946
0.999292 -0.514305 -0.404205
-0.645495 -0.436064 -0.452846
-0.509092 -0.449119 -0.436
0.663671 -0.480633 -0.443348
0.860864 -0.44967 -0.452912
-0.652698 -0.345265 -0.4378
-0.521452 -0.345004 -0.426945
-0.453487 -0.312255 -0.46615
-0.344782 -0.312255 -0.440508
-0.243488 -0.312255 -0.453329
-0.176782 -0.312255 -0.453329
-0.0404054 -0.312255 -0.461021
0.0603945 -0.312255 -0.42186
0.138218 -0.312255 -0.458574
0.267924 -0.312255 -0.44517
0.342041 -0.312255 -0.414867
0.426041 -0.312255 -0.447501
0.554512 -0.312255 -0.44517
0.673632 -0.351621 -0.42389
0.731159 -0.312255 -0.460322
0.855474 -0.341967 -0.445412
-0.724069 -0.230807 -0.444896
-0.699513 -0.265143 -0.423523
-0.524248 -0.261873 -0.44214
0.683848 -0.257592 -0.457568
-0.729728 -0.159941 -0.445379
-0.530532 -0.146225 -0.4385
0.691407 -0.14082 -0.431794
0.999292 -0.172661 -0.420307
-0.730564 -0.0889695 -0.462289
-0.532657 -0.0594268 -0.429891
0.692617 -0.0486045 -0.422306
0.999292 -0.0647733 -0.484718
-0.72652 0.0359531 -0.468528
-0.523089 0.0600538 -0.430041
0.68375 0.0515081 -0.43486
-0.72652 0.148191 -0.472713
-0.515459 0.154953 -0.430819
0.677138 0.13872 -0.427693
0.999292 0.168983 -0.43641
-0.72652 0.261372 -0.459323
-0.506096 0.260804 -0.440802
0.666935 0.258896 -0.435904
-0.72652 0.358982 -0.476516
-0.500979 0.308318 -0.400911
-0.489257 0.353666 -0.441242
0.652633 0.341074 -0.43207
0.999292 0.366778 -0.420307
-0.730248 0.459916 -0.453688
-0.468457 0.450943 -0.442296
0.62801 0.453036 -0.446708
-0.725638 0.558602 -0.440076
-0.699513 0.592683 -0.435938
-0.446468 0.546253 -0.454202
0.593227 0.595789 -0.476233
0.607311 0.543187 -0.461726
0.999292 0.528609 -0.43641
-0.715816 0.694575 -0.446889
-0.699513 0.655174 -0.43214
-0.415526 0.645812 -0.45517
-0.357256 0.687969 -0.456241
0.482824 0.698495 -0.454146
0.551283 0.666829 -0.456425
0.999292 0.654478 -0.484718
-0.730072 0.741232 -0.448767
-0.605713 0.798328 -0.404205
-0.553938 0.798328 -0.404205
-0.45039 0.798328 -0.420307
-0.320128 0.719927 -0.454054
-0.264726 0.719612 -0.460671
-0.157017 0.704912 -0.436998
-0.0449408 0.735939 -0.461595
0.0494766 0.736051 -0.431434
0.154701 0.72814 -0.464744
0.280723 0.70466 -0.480706
0.361047 0.751494 -0.454532
0.460166 0.70751 -0.456137
0.585098 0.798328 -0.420307
0.65413 0.798328 -0.484718
0.740421 0.798328 -0.43641
0.843969 0.798328 -0.452512
0.964776 0.762366 -0.420307
-0.72652 -0.952203 -0.350933
-0.621487 -0.912998 -0.351912
-0.543242 -0.959459 -0.355989
-0.434361 -0.946012 -0.340575
-0.353187 -0.959459 -0.34569
-0.234761 -0.959459 -0.342291
-0.176782 -0.919118 -0.346335
-0.0316059 -0.951391 -0.340475
0.0603945 -0.919118 -0.382464
0.125255 -0.946012 -0.358033
0.267924 -0.919118 -0.351313
0.319992 -0.972906 -0.369945
0.416159 -0.919118 -0.39804
0.534747 -0.919118 -0.351313
0.638512 -0.919118 -0.39804
0.712629 -0.919118 -0.351313
0.852394 -0.911414 -0.346719
0.999292 -0.981819 -0.355897
-0.726956 -0.858649 -0.336607
-0.623049 -0.873117 -0.338449
-0.420339 -0.813115 -0.363565
-0.363824 -0.838347 -0.364397
-0.2502 -0.852078 -0.365503
-0.14957 -0.857326 -0.361028
-0.0533564 -0.864066 -0.364215
0.0490356 -0.872633 -0.365246
0.149938 -0.870322 -0.365112
0.22904 -0.861132 -0.364763
0.348807 -0.856413 -0.359335
0.437493 -0.848695 -0.366664
0.557206 -0.824816 -0.36371
0.860865 -0.874142 -0.345623
0.999292 -0.85595 -0.355897
-0.6605 -0.753389 -0.334109
-0.44425 -0.778568 -0.370697
0.598182 -0.795406 -0.371689
0.608296 -0.766444 -0.373159
0.860864 -0.748091 -0.335086
0.999292 -0.748062 -0.355897
-0.622908 -0.661645 -0.343899
-0.476987 -0.644458 -0.368499
0.638663 -0.638374 -0.362201
0.860865 -0.659806 -0.347104
0.999292 -0.640174 -0.355897
-0.649354 -0.545714 -0.34205
-0.502552 -0.503143 -0.380244
-0.493644 -0.556935 -0.359898
0.657208 -0.537814 -0.363755
0.860864 -0.559927 -0.350049
0.999292 -0.568249 -0.355897
-0.649354 -0.444441 -0.340682
-0.511943 -0.456869 -0.364435
0.672862 -0.452062 -0.368161
0.860864 -0.459071 -0.352815
0.999292 -0.460362 -0.355897
-0.649026 -0.343583 -0.334545
-0.523064 -0.328228 -0.371548
-0.478193 -0.312255 -0.323956
-0.332429 -0.312255 -0.337942
-0.176782 -0.312255 -0.354726
-0.0374407 -0.312255 -0.353327
0.0307474 -0.312255 -0.337942
0.128583 -0.312255 -0.349131
0.258041 -0.312255 -0.361253
0.327218 -0.312255 -0.337942
0.430982 -0.312255 -0.343537
0.564394 -0.312255 -0.355425
0.675717 -0.330806 -0.353115
0.73857 -0.312255 -0.351929
0.858085 -0.338746 -0.346676
0.999292 -0.352474 -0.355897
-0.724877 -0.22965 -0.33692
-0.699513 -0.261456 -0.313743
-0.528305 -0.256954 -0.372983
0.689123 -0.253558 -0.365381
0.999292 -0.280549 -0.355897
-0.729839 -0.15902 -0.33797
-0.53378 -0.16269 -0.363592
0.69409 -0.161295 -0.36331
0.999292 -0.172661 -0.355897
-0.73076 -0.088173 -0.368667
-0.537275 -0.0397238 -0.317305
0.696841 -0.0271988 -0.316145
0.999292 -0.0647734 -0.355897
-0.72652 0.050478 -0.366017
-0.529961 0.0496885 -0.314792
0.689319 0.0496555 -0.330945
0.999292 0.0610957 -0.355897
-0.72652 0.15136 -0.359574
-0.519258 0.155606 -0.355041
0.681479 0.140453 -0.339563
0.999292 0.151002 -0.355897
-0.72652 0.251563 -0.365599
-0.509086 0.269709 -0.362155
0.671158 0.249974 -0.358145
0.999292 0.276871 -0.339794
-0.72652 0.361047 -0.381833
-0.502475 0.312511 -0.353864
-0.493589 0.354468 -0.352612
0.655098 0.348004 -0.354444
0.999292 0.366778 -0.355897
-0.730253 0.463293 -0.351777
-0.469663 0.472892 -0.326434
0.632056 0.462911 -0.325604
0.999292 0.474665 -0.339794
-0.725732 0.558634 -0.330328
-0.699513 0.591699 -0.324916
-0.451666 0.548716 -0.313429
0.598125 0.597274 -0.345667
0.610225 0.548974 -0.352921
0.999292 0.582553 -0.355897
-0.71624 0.694602 -0.341873
-0.699513 0.652555 -0.322063
-0.419108 0.648898 -0.320572
-0.360452 0.6899 -0.326192
0.486746 0.698905 -0.324535
0.554379 0.66928 -0.324449
0.999292 0.654478 -0.355897
-0.730021 0.742421 -0.342077
-0.306253 0.70339 -0.342296
-0.245457 0.705443 -0.344724
-0.165629 0.705415 -0.349581
-0.0468187 0.736358 -0.356543
0.0500923 0.705415 -0.349581
0.130109 0.724082 -0.336275
0.249539 0.705373 -0.356866
0.34036 0.742564 -0.34858
0.469894 0.709245 -0.316092
0.516065 0.798328 -0.323692
0.671388 0.798328 -0.339794
0.826711 0.798328 -0.355897
0.999292 0.798328 -0.355897
-0.72652 -0.939084 -0.265798
-0.622929 -0.918818 -0.246914
-0.540243 -0.972906 -0.250235
-0.458429 -0.919118 -0.247351
-0.345167 -0.959459 -0.230166
-0.208776 -0.9998 -0.210974
-0.175521 -0.959459 -0.221914
-0.0508607 -0.946012 -0.244081
0.0500959 -0.9998 -0.275384
0.14996 -0.946012 -0.253317
0.267924 -0.919118 -0.289011
0.343484 -0.9998 -0.259282
0.447838 -0.946012 -0.289836
0.589569 -0.959459 -0.290249
0.65413 -0.9998 -0.291487
0.752352 -0.946012 -0.258685
0.860945 -0.929121 -0.252133
-0.726164 -0.862934 -0.243102
-0.62186 -0.866488 -0.239462
-0.423831 -0.815524 -0.241204
-0.36549 -0.840933 -0.244112
-0.252846 -0.855029 -0.244804
-0.135432 -0.861593 -0.236673
-0.0577145 -0.872228 -0.24016
0.0469967 -0.87878 -0.236708
0.149534 -0.877128 -0.236892
0.256159 -0.865333 -0.241749
0.34816 -0.858033 -0.252072
0.446025 -0.850551 -0.252163
0.561331 -0.827167 -0.25038
0.60194 -0.801935 -0.224796
0.860867 -0.868084 -0.245944
0.999292 -0.891912 -0.259282
-0.622108 -0.732718 -0.238729
-0.448092 -0.783132 -0.249215
0.599551 -0.799617 -0.298164
0.608594 -0.781404 -0.250742
0.860864 -0.732253 -0.239285
0.999292 -0.748062 -0.291487
-0.626364 -0.676411 -0.274805
-0.482939 -0.641882 -0.252814
0.643765 -0.640473 -0.248448
0.860864 -0.685581 -0.284728
-0.633491 -0.550597 -0.247992
-0.505171 -0.525719 -0.249098
-0.497411 -0.570568 -0.238567
0.661778 -0.547654 -0.240471
0.860864 -0.557374 -0.251826
0.999292 -0.568249 -0.291487
-0.627489 -0.440005 -0.248882
-0.517828 -0.45579 -0.249403
0.678632 -0.450074 -0.255028
0.860864 -0.447778 -0.24785
-0.625594 -0.345148 -0.242497
-0.528786 -0.330494 -0.27722
-0.473252 -0.312255 -0.225054
-0.32687 -0.312255 -0.251403
-0.206429 -0.312255 -0.261018
-0.176782 -0.312255 -0.254025
-0.0492995 -0.312255 -0.252626
0.0455709 -0.312255 -0.240039
0.140441 -0.312255 -0.235843
0.261994 -0.312255 -0.25962
0.364277 -0.312255 -0.250528
0.426041 -0.312255 -0.247032
0.5471 -0.312255 -0.248197
0.674032 -0.328617 -0.268811
0.739806 -0.312255 -0.249363
0.851377 -0.33738 -0.243574
0.999292 -0.352474 -0.259282
-0.72327 -0.232083 -0.247772
-0.699513 -0.281027 -0.232339
-0.533814 -0.275243 -0.253511
0.695577 -0.25158 -0.249759
-0.730328 -0.161124 -0.238783
-0.540663 -0.146654 -0.25362
0.699276 -0.171047 -0.259543
0.700831 -0.146641 -0.254615
-0.730256 -0.0868315 -0.265413
-0.54258 -0.0594645 -0.248535
0.7026 -0.0560461 -0.244762
0.999292 -0.0108295 -0.275384
-0.72652 0.0548795 -0.253743
-0.533074 0.0552997 -0.24546
0.69287 0.0578357 -0.249116
-0.72652 0.154529 -0.251791
-0.524269 0.152241 -0.261748
0.684478 0.149182 -0.266826
-0.72652 0.257935 -0.267411
-0.514936 0.263106 -0.263261
0.675618 0.256582 -0.267063
0.999292 0.222927 -0.227076
-0.72652 0.356162 -0.269364
-0.504162 0.327722 -0.256783
-0.49384 0.370472 -0.280479
0.659656 0.343653 -0.282989
-0.730701 0.458295 -0.260282
-0.48109 0.429653 -0.283028
0.640117 0.437263 -0.271509
0.999292 0.420721 -0.210974
-0.727851 0.549581 -0.243269
-0.699513 0.595601 -0.265859
-0.45577 0.545166 -0.234444
0.613813 0.553658 -0.234444
0.999292 0.582553 -0.227076
-0.715496 0.694695 -0.250482
-0.699513 0.64524 -0.249099
-0.420749 0.652589 -0.238515
-0.373598 0.687321 -0.244449
0.494066 0.698527 -0.262087
0.561951 0.668227 -0.239668
-0.729672 0.742863 -0.240129
-0.622971 0.798328 -0.259282
-0.553938 0.798328 -0.259282
-0.484906 0.798328 -0.291487
-0.323827 0.72183 -0.244717
-0.240902 0.736834 -0.252512
-0.125539 0.728958 -0.272371
-0.0233661 0.73675 -0.256347
0.0325548 0.706087 -0.233025
0.149035 0.729168 -0.239972
0.254795 0.736778 -0.256858
0.343769 0.736834 -0.231042
0.464728 0.730736 -0.226944
0.645501 0.798328 -0.219025
0.792195 0.798328 -0.227076
0.826711 0.798328 -0.275384
0.956147 0.753375 -0.275384
-0.72652 -0.948567 -0.160296
-0.621636 -0.918728 -0.146953
-0.558066 -0.959459 -0.135434
-0.473252 -0.919118 -0.145684
-0.33984 -0.919118 -0.153599
-0.206429 -0.919118 -0.136831
-0.143048 -0.946012 -0.152922
-0.0323707 -0.959459 -0.151264
0.045571 -0.919118 -0.118871
0.128037 -0.959459 -0.155935
0.252842 -0.946012 -0.13734
0.340899 -0.946012 -0.153442
0.448247 -0.972906 -0.173805
0.556982 -0.919118 -0.187769
0.657995 -0.972906 -0.178997
0.758916 -0.946012 -0.122291
0.856595 -0.923375 -0.139971
0.984911 -0.969831 -0.168034
-0.72644 -0.856371 -0.163451
-0.622342 -0.848069 -0.138396
-0.425004 -0.818226 -0.142325
-0.369075 -0.841815 -0.146048
-0.267938 -0.856271 -0.147772
-0.143583 -0.86514 -0.157012
-0.0494874 -0.877315 -0.163733
0.05146 -0.882544 -0.159181
0.147478 -0.880736 -0.166261
0.267921 -0.869659 -0.161836
0.353803 -0.859501 -0.140423
0.451499 -0.853045 -0.143087
0.560267 -0.832043 -0.141892
0.605741 -0.803269 -0.13377
0.860868 -0.856048 -0.142142
0.999292 -0.819987 -0.194871
-0.622776 -0.768739 -0.144632
-0.458479 -0.758861 -0.155726
0.619772 -0.753674 -0.161934
0.860864 -0.773706 -0.152821
0.999292 -0.757053 -0.178769
-0.623075 -0.646172 -0.112494
-0.482265 -0.662294 -0.161398
0.645395 -0.649096 -0.162872
0.860863 -0.643783 -0.111088
0.999292 -0.631184 -0.18682
-0.622614 -0.547868 -0.117571
-0.508821 -0.54504 -0.109718
-0.497044 -0.592098 -0.168741
0.668507 -0.547295 -0.111987
0.860867 -0.545698 -0.116014
0.999292 -0.550268 -0.194871
-0.622435 -0.44751 -0.123414
-0.52507 -0.447778 -0.132668
0.684624 -0.453547 -0.129452
0.860868 -0.444646 -0.122022
0.999292 -0.44238 -0.178769
-0.621817 -0.352965 -0.12966
-0.541589 -0.330698 -0.12929
-0.463154 -0.327667 -0.132716
-0.344696 -0.328302 -0.131588
-0.234628 -0.330871 -0.12742
-0.161617 -0.326925 -0.13375
-0.0492638 -0.327267 -0.133169
0.045571 -0.330993 -0.127212
0.140489 -0.32724 -0.133051
0.254808 -0.326783 -0.133871
0.339169 -0.330782 -0.12769
0.433221 -0.327392 -0.133042
0.558014 -0.32811 -0.131859
0.654432 -0.331644 -0.129296
0.738691 -0.328529 -0.13142
0.856016 -0.34956 -0.129729
0.999292 -0.370455 -0.194871
-0.725073 -0.230498 -0.161377
-0.699513 -0.257201 -0.187647
-0.541491 -0.257345 -0.129597
0.698377 -0.270578 -0.175667
0.703707 -0.233317 -0.119213
0.999292 -0.280549 -0.194871
-0.729899 -0.145527 -0.153881
-0.547207 -0.150451 -0.130821
0.707251 -0.148195 -0.136225
0.999292 -0.145689 -0.174743
-0.730238 -0.0865008 -0.161233
-0.548119 -0.0563678 -0.138966
0.708161 -0.0487906 -0.133156
0.999292 -0.0108294 -0.194871
-0.72652 0.0393862 -0.141665
-0.539057 0.0526196 -0.136471
0.697219 0.0641511 -0.155971
0.702369 0.0353224 -0.107222
0.999292 0.0790769 -0.194871
-0.72652 0.144418 -0.149698
-0.5312 0.146101 -0.135047
0.691689 0.138832 -0.141229
0.999292 0.159993 -0.162666
-0.72652 0.251846 -0.156602
-0.521799 0.252934 -0.147482
0.682014 0.255008 -0.143704
0.999292 0.25889 -0.194871
-0.72652 0.354181 -0.154161
-0.507081 0.33709 -0.160006
-0.495909 0.389195 -0.161177
0.664278 0.351877 -0.157482
0.999292 0.348796 -0.194871
-0.730529 0.462783 -0.161215
-0.484845 0.440631 -0.159149
0.64495 0.442618 -0.150793
0.999292 0.438703 -0.194871
-0.725001 0.560509 -0.171323
-0.699513 0.59245 -0.190839
-0.456692 0.555034 -0.149012
0.618208 0.552376 -0.13386
0.999292 0.528609 -0.194871
-0.716482 0.694589 -0.15701
-0.699513 0.651642 -0.183108
-0.420629 0.656643 -0.154381
-0.364434 0.693371 -0.154233
0.49641 0.698984 -0.165021
0.556237 0.673829 -0.154143
0.999292 0.654478 -0.162666
-0.729737 0.744744 -0.153352
-0.640229 0.798328 -0.114358
-0.53668 0.798328 -0.138512
-0.333176 0.722625 -0.147716
-0.2411 0.729588 -0.142971
-0.156597 0.729378 -0.175369
-0.0571151 0.724938 -0.14902
0.0348792 0.737114 -0.144905
0.14357 0.761667 -0.153236
0.263727 0.706618 -0.140752
0.351845 0.767777 -0.130654
0.481732 0.703906 -0.154974
0.861228 0.798328 -0.130461
0.999292 0.775852 -0.194871
-0.72652 -0.947785 -0.0496003
-0.621487 -0.910974 -0.0557137
-0.539958 -0.919118 -0.0553377
-0.467254 -0.946012 -0.0413294
-0.34857 -0.951391 -0.0685807
-0.237249 -0.959459 -0.0869882
-0.139723 -0.919118 -0.0358875
-0.0316059 -0.951391 -0.0526035
0.128037 -0.959459 -0.0374192
0.267924 -0.919118 -0.00864951
0.308968 -0.9998 -0.0499481
0.448854 -0.959459 -0.0685013
0.52852 -0.946012 -0.0693182
0.66537 -0.972906 -0.0569494
0.857449 -0.919378 -0.0320017
0.999292 -0.9998 -0.0338455
-0.72749 -0.859801 -0.062262
-0.621579 -0.846504 -0.0669978
-0.541714 -0.84383 -0.0654761
-0.458824 -0.84432 -0.060076
-0.343877 -0.847445 -0.060185
-0.236126 -0.845956 -0.0662117
-0.162503 -0.852097 -0.0599074
-0.0476943 -0.85062 -0.0585147
0.0455113 -0.848739 -0.0667919
0.139193 -0.850997 -0.0587097
0.256286 -0.851351 -0.0584089
0.338121 -0.848387 -0.0665184
0.433709 -0.848777 -0.0567346
0.559672 -0.84581 -0.0582329
0.649805 -0.841602 -0.065241
0.736766 -0.84721 -0.0591956
0.852672 -0.850536 -0.0643163
0.999292 -0.85595 -0.0338455
-0.623568 -0.755378 -0.0957342
-0.550664 -0.75956 -0.0941378
-0.457543 -0.773541 -0.0841214
-0.358899 -0.751233 -0.0941378
-0.245958 -0.755251 -0.0941378
-0.143429 -0.75107 -0.0941378
-0.0581937 -0.749929 -0.0941378
0.0566886 -0.754491 -0.0941378
0.154277 -0.766656 -0.0941378
0.20863 -0.734723 -0.0941378
0.319806 -0.762474 -0.0941378
0.445806 -0.759053 -0.0941378
0.576253 -0.750842 -0.0941378
0.624816 -0.766367 -0.0811128
0.742276 -0.761127 -0.0941378
0.857783 -0.752071 -0.0957279
0.999292 -0.784025 -0.0338455
-0.623989 -0.65685 -0.0955106
-0.539958 -0.663254 -0.0941378
-0.47135 -0.645514 -0.0803517
-0.348735 -0.661429 -0.0941378
-0.236076 -0.65413 -0.0941378
-0.141205 -0.655955 -0.0941378
-0.0581937 -0.640444 -0.0941378
0.0381592 -0.659452 -0.0941378
0.154277 -0.661733 -0.0941378
0.248159 -0.65565 -0.0941378
0.333147 -0.655955 -0.0941378
0.439876 -0.670553 -0.0941378
0.545335 -0.665209 -0.0941378
0.651588 -0.644664 -0.0826761
0.752159 -0.662493 -0.0941378
0.85992 -0.652026 -0.0962367
0.999292 -0.676137 -0.0499481
-0.624548 -0.553753 -0.095685
-0.53312 -0.544391 -0.0813753
-0.452499 -0.543732 -0.0941378
-0.354664 -0.547686 -0.0941378
-0.242429 -0.543341 -0.0941378
-0.156029 -0.549207 -0.0941378
-0.0557231 -0.553769 -0.0941378
0.0492769 -0.544645 -0.0941378
0.151453 -0.560286 -0.0941378
0.2531 -0.549207 -0.0941378
0.347971 -0.551944 -0.0941378
0.438394 -0.550727 -0.0941378
0.553276 -0.547496 -0.0941378
0.664538 -0.548823 -0.0708964
0.752864 -0.553769 -0.0941378
0.860417 -0.547401 -0.0963179
0.999292 -0.568249 -0.0338455
-0.623131 -0.446639 -0.0963275
-0.540146 -0.436807 -0.081588
-0.464781 -0.437767 -0.0941378
-0.346193 -0.449497 -0.0941378
-0.206429 -0.430598 -0.0941378
-0.0804289 -0.449986 -0.0941378
0.0381592 -0.444284 -0.0941378
0.156747 -0.438581 -0.0941378
0.2531 -0.453407 -0.0941378
0.3539 -0.436984 -0.0941378
0.453218 -0.443143 -0.0941378
0.552041 -0.432879 -0.0941378
0.667573 -0.445822 -0.0790807
0.742276 -0.43907 -0.0941378
0.859859 -0.444848 -0.0966243
0.999292 -0.478343 -0.0499481
-0.624199 -0.369443 -0.0961188
-0.541921 -0.358683 -0.0925205
-0.458428 -0.360027 -0.0968179
-0.351612 -0.36026 -0.0967079
-0.235109 -0.360234 -0.0967173
-0.152217 -0.360651 -0.0965479
-0.0605519 -0.36094 -0.0967354
0.0459239 -0.361079 -0.0966336
0.152368 -0.360567 -0.0968077
0.246996 -0.360162 -0.0967491
0.338159 -0.360548 -0.0967698
0.441173 -0.360529 -0.0967219
0.555593 -0.360835 -0.0967056
0.657779 -0.360613 -0.0945025
0.744994 -0.360765 -0.0944004
0.852666 -0.369532 -0.0970614
0.999292 -0.352474 -0.0338455
-0.725614 -0.228237 -0.0576229
-0.699513 -0.259187 -0.0777783
-0.545936 -0.249597 -0.0524944
0.705048 -0.26635 -0.0484614
0.999292 -0.262567 -0.0338455
-0.730058 -0.157458 -0.0586046
-0.552709 -0.130688 -0.0495646
0.712035 -0.149353 -0.0480134
0.999292 -0.136698 -0.0338455
-0.730492 -0.0856529 -0.048812
-0.552083 -0.0390363 -0.044545
0.712305 -0.0390363 -0.044545
0.999292 -0.0288107 -0.0338455
-0.72652 0.0513583 -0.035053
-0.544937 0.0517361 -0.0271347
0.705159 0.0517361 -0.0271347
0.999292 0.079077 -0.0338455
-0.72652 0.155736 -0.0409108
-0.534546 0.151761 -0.0613792
0.695749 0.140107 -0.0604105
0.999292 0.151002 -0.0338455
-0.72652 0.246784 -0.0331005
-0.524555 0.276767 -0.0463774
0.687296 0.265086 -0.0228937
0.999292 0.25889 -0.0338455
-0.72652 0.345598 -0.0423753
-0.510354 0.351146 -0.0365634
0.672627 0.344131 -0.0256719
0.999292 0.366778 -0.0660507
-0.730485 0.460464 -0.0518958
-0.500711 0.402545 -0.0106207
-0.490472 0.441169 -0.0314052
0.649011 0.446138 -0.0405639
0.999292 0.438703 -0.0338455
-0.725757 0.558031 -0.0666651
-0.699513 0.59245 -0.0807046
-0.462913 0.551069 -0.0202879
0.622897 0.549876 -0.033759
0.999292 0.54659 -0.0553156
-0.716857 0.694795 -0.0538024
-0.699513 0.651106 -0.0759161
-0.425767 0.656427 -0.0309904
-0.372306 0.69371 -0.0279709
0.561236 0.675249 -0.0306578
0.603759 0.624397 -0.0327368
0.999292 0.654478 -0.0338455
-0.729865 0.743717 -0.0547328
-0.553938 0.798328 -0.0338455
-0.415873 0.798328 -0.0660507
-0.334883 0.711352 -0.0417491
-0.22546 0.767889 -0.0682874
-0.151647 0.70701 -0.0727608
-0.0438072 0.752837 -0.0322155
0.0491926 0.707066 -0.0630478
0.129489 0.737617 -0.0306501
0.223168 0.707178 -0.0436218
0.338228 0.737576 -0.0379348
0.485463 0.711341 -0.0385224
0.519105 0.720552 -0.0312375
0.65413 0.798328 -0.0982558
0.757679 0.798328 -0.0982558
0.999292 0.780347 -0.0338455
-0.726519 -0.946816 0.0573693
-0.620501 -0.917508 0.0519702
-0.559442 -0.946012 0.0346285
-0.469233 -0.959459 0.0457241
-0.363562 -0.946012 0.0455007
-0.240075 -0.972906 0.0307307
-0.176782 -0.919118 0.0300744
-0.0336454 -0.972906 0.0585388
0.052832 -0.946012 0.0543537
0.14513 -0.951391 0.0532171
0.267924 -0.919118 0.0653982
0.352113 -0.9998 0.0386161
0.452779 -0.946012 0.0409407
0.574746 -0.959459 0.0421089
0.638909 -0.959459 0.0743141
0.736717 -0.946012 0.0409407
0.856037 -0.935189 0.0578485
0.964776 -0.963838 0.0305648
-0.727722 -0.85918 0.0450393
-0.623847 -0.872207 0.0442999
-0.545252 -0.865843 0.0457574
-0.435155 -0.827981 0.0482682
-0.349459 -0.853084 0.0510489
-0.235785 -0.864936 0.0468726
-0.162326 -0.878188 0.0409529
-0.0541705 -0.885094 0.0443177
0.0492714 -0.887524 0.0447965
0.155396 -0.886902 0.0435122
0.252858 -0.882723 0.0448631
0.357899 -0.870366 0.0427747
0.460902 -0.859458 0.0588639
0.561249 -0.840188 0.0617514
0.617701 -0.820722 0.0467485
0.750747 -0.865752 0.0437219
0.855349 -0.872106 0.0528217
0.999292 -0.85595 0.0949751
-0.699513 -0.756547 0.0376769
-0.464344 -0.767992 0.0477307
0.625452 -0.764582 0.0492148
0.999292 -0.730081 0.0466673
-0.699513 -0.659855 0.0313455
-0.503431 -0.610304 0.0610694
-0.487916 -0.66879 0.0290341
0.652571 -0.65208 0.038187
-0.699513 -0.568126 0.0335801
-0.515286 -0.552235 0.0425051
0.675716 -0.552056 0.0455386
0.999292 -0.568249 0.0305648
-0.699513 -0.448799 0.0302282
-0.532989 -0.45297 0.0413674
0.692646 -0.454784 0.0350159
0.700598 -0.405551 0.0773514
-0.699513 -0.349526 0.0376769
-0.54454 -0.345286 0.0676104
0.704661 -0.351042 0.0746239
0.999292 -0.370455 0.0466674
-0.724639 -0.229065 0.0477568
-0.699513 -0.259187 0.0320904
-0.551989 -0.231504 0.0411152
0.711483 -0.243689 0.0458691
-0.729947 -0.158792 0.0496069
-0.556261 -0.146889 0.0306223
0.716315 -0.150388 0.0309131
0.999292 -0.136698 0.0949751
-0.730098 -0.0833559 0.0629876
-0.557573 -0.0579284 0.0314157
0.717655 -0.0551429 0.0339467
0.999292 -0.0288107 0.0305648
-0.72652 0.0460765 0.0723395
-0.550371 0.0434055 0.0613094
0.710593 0.0434055 0.0613094
-0.72652 0.132346 0.0779183
-0.539531 0.148335 0.0301062
0.69774 0.162247 0.0146836
0.703889 0.115903 0.0564346
-0.72652 0.244144 0.0742921
-0.530494 0.250647 0.0225421
0.692041 0.235294 0.0174988
-0.72652 0.352068 0.083274
-0.517094 0.338602 0.0434432
0.677357 0.338103 0.0421307
0.999292 0.312834 0.0144622
-0.730527 0.463042 0.0566483
-0.493681 0.441611 0.0460314
0.651238 0.45257 0.0496583
-0.725652 0.558747 0.0427687
-0.699513 0.592149 0.0294301
-0.466653 0.548468 0.055703
0.628166 0.543629 0.056912
0.999292 0.510628 0.0305648
-0.714915 0.694695 0.047849
-0.699513 0.651445 0.0333706
-0.424837 0.662172 0.0468987
-0.3775 0.693326 0.0404775
0.567404 0.675465 0.0450976
0.605596 0.62704 0.0422636
0.999292 0.672459 0.0144622
-0.730288 0.740099 0.0495974
-0.657487 0.798328 0.0305648
-0.571196 0.798328 0.06277
-0.467648 0.798328 0.0466673
-0.34156 0.722718 0.0534178
-0.241567 0.730301 0.0372284
-0.14506 0.730301 0.0372284
-0.0416936 0.753005 0.0371799
0.0247428 0.707724 0.0510798
0.136648 0.753026 0.0609505
0.233732 0.737925 0.0442415
0.343141 0.753026 0.0569249
0.483896 0.724535 0.0408424
0.51916 0.750417 0.0364134
0.65413 0.798328 0.0305648
0.723163 0.798328 0.0305648
0.852598 0.798328 0.0144622
-0.72652 -0.954876 0.159515
-0.621009 -0.908359 0.175806
-0.555312 -0.946012 0.155026
-0.451496 -0.939289 0.142002
-0.357631 -0.939289 0.145173
-0.223013 -0.97963 0.150238
-0.176782 -0.919118 0.134975
-0.0538196 -0.951391 0.153671
0.120313 -0.946012 0.153855
0.254732 -0.939289 0.165879
0.310681 -0.959459 0.144335
0.442315 -0.951391 0.152982
0.579218 -0.919118 0.178258
0.65413 -0.9998 0.12718
0.749033 -0.946012 0.171967
0.857449 -0.920951 0.142127
0.988938 -0.989011 0.146503
-0.727639 -0.860227 0.149962
-0.624067 -0.884163 0.146318
-0.538476 -0.870654 0.150491
-0.438081 -0.829266 0.167538
-0.351609 -0.858276 0.16383
-0.252375 -0.871324 0.165042
-0.153149 -0.88495 0.163616
-0.0532784 -0.891438 0.163368
0.042222 -0.893275 0.160463
0.147702 -0.893352 0.160395
0.249718 -0.889811 0.161997
0.361399 -0.879021 0.156294
0.432445 -0.867941 0.171702
0.554373 -0.845503 0.164657
0.617069 -0.819462 0.172216
0.749688 -0.869954 0.135104
0.858333 -0.877327 0.145631
0.999292 -0.873931 0.12718
-0.699513 -0.755306 0.141959
-0.472987 -0.748544 0.149167
0.633209 -0.748544 0.149167
0.999292 -0.766043 0.143283
-0.699513 -0.651317 0.141959
-0.503207 -0.622984 0.136709
-0.490503 -0.677718 0.154506
0.65496 -0.659473 0.148574
0.999292 -0.631184 0.12718
-0.699513 -0.543109 0.128924
-0.523597 -0.540853 0.169535
0.683583 -0.542356 0.169424
-0.699513 -0.450189 0.140842
-0.538933 -0.455298 0.163049
0.696049 -0.476527 0.166373
0.703024 -0.426109 0.159176
0.999292 -0.478343 0.12718
-0.699513 -0.34893 0.152015
-0.549357 -0.343878 0.163721
0.708688 -0.352546 0.159176
0.999292 -0.370455 0.12718
-0.724832 -0.228684 0.15099
-0.699513 -0.257201 0.138235
-0.557792 -0.228289 0.154216
0.715767 -0.260593 0.159176
0.999292 -0.244586 0.143283
-0.729442 -0.162573 0.153007
-0.5622 -0.168535 0.160988
0.723448 -0.149936 0.160374
0.999292 -0.118717 0.12718
-0.730323 -0.0877943 0.144585
-0.564119 -0.0563229 0.156109
0.724103 -0.0534653 0.156737
-0.72652 0.0425553 0.128965
-0.554134 0.057605 0.156021
0.714356 0.057605 0.156021
0.999292 0.00715183 0.12718
-0.72652 0.169318 0.158254
-0.545287 0.159509 0.159445
0.705318 0.161092 0.158545
0.999292 0.133021 0.151334
-0.72652 0.253827 0.146538
-0.536874 0.254554 0.151991
0.696298 0.262037 0.146087
0.701033 0.211463 0.156926
0.999292 0.25889 0.12718
-0.72652 0.355941 0.154348
-0.51978 0.349554 0.142289
0.680704 0.346492 0.14395
0.999292 0.339806 0.12718
-0.730543 0.467378 0.154674
-0.506166 0.410098 0.154837
-0.490783 0.46662 0.133076
0.6554 0.45047 0.139293
0.999292 0.456684 0.137915
-0.725838 0.558732 0.149493
-0.699513 0.592712 0.139166
-0.468021 0.55598 0.137221
0.627879 0.557663 0.138879
0.999292 0.555581 0.12718
-0.716167 0.694839 0.14998
-0.699513 0.649845 0.141214
-0.430519 0.660031 0.138411
-0.380506 0.695094 0.139085
0.563105 0.682139 0.137541
0.605387 0.640145 0.143289
0.999292 0.660472 0.137915
-0.729814 0.745125 0.152086
-0.674745 0.798328 0.175488
-0.53668 0.798328 0.167437
-0.347315 0.711092 0.136771
-0.230405 0.738345 0.154662
-0.129053 0.708269 0.145781
-0.0368071 0.744293 0.144782
0.056276 0.708102 0.116642
0.131993 0.738289 0.139581
0.227981 0.708269 0.145781
0.337933 0.744243 0.145702
0.4769 0.730531 0.1403
0.508692 0.703541 0.133861
0.671388 0.798328 0.159385
0.843969 0.798328 0.159385
0.999292 0.784842 0.12718
-0.72652 -0.950309 0.249301
-0.645857 -0.910326 0.276411
-0.539958 -0.919118 0.253194
-0.443605 -0.919118 0.235137
-0.35615 -0.946012 0.262582
-0.222426 -0.959459 0.255956
-0.142194 -0.919118 0.243309
-0.0259035 -0.934432 0.267147
0.0446693 -0.916132 0.241288
0.14431 -0.928886 0.254633
0.248159 -0.919118 0.275001
0.343484 -0.9998 0.223796
0.442315 -0.951391 0.266969
0.567839 -0.9998 0.207693
0.65413 -0.9998 0.256001
0.723163 -0.9998 0.223796
0.862363 -0.923858 0.245118
0.999292 -0.9998 0.288206
-0.727195 -0.859451 0.252457
-0.651415 -0.88394 0.268635
-0.54426 -0.875889 0.264478
-0.446192 -0.850088 0.255641
-0.364569 -0.861941 0.251638
-0.25899 -0.876703 0.246533
-0.14371 -0.883996 0.249624
-0.0530276 -0.885168 0.237188
0.0485357 -0.875652 0.259049
0.159966 -0.879098 0.243729
0.260054 -0.890235 0.243565
0.354845 -0.882334 0.247232
0.440274 -0.873517 0.248956
0.56411 -0.84862 0.244002
0.635333 -0.850907 0.260345
0.7571 -0.87513 0.247652
0.860864 -0.882299 0.253391
0.999292 -0.861944 0.261368
-0.699513 -0.755753 0.249221
-0.473542 -0.760445 0.240315
0.633764 -0.760445 0.240315
0.999292 -0.7121 0.256001
-0.699513 -0.644368 0.264863
-0.508699 -0.619195 0.256841
-0.494281 -0.67887 0.261291
0.661712 -0.649033 0.259066
0.999292 -0.640174 0.288206
-0.699513 -0.550555 0.234137
-0.521517 -0.564133 0.239934
0.681739 -0.564133 0.239934
0.999292 -0.559259 0.24795
-0.699513 -0.453763 0.243634
-0.544912 -0.454903 0.278198
0.699195 -0.496842 0.299599
0.705454 -0.451141 0.274969
0.999292 -0.44238 0.288206
-0.699513 -0.350518 0.251828
-0.552965 -0.357032 0.258046
0.713525 -0.354179 0.260482
0.999292 -0.352474 0.223796
-0.724186 -0.22982 0.25074
-0.699513 -0.260924 0.2495
-0.560969 -0.248314 0.250546
0.72116 -0.250203 0.252932
0.999292 -0.280549 0.288206
-0.729905 -0.163231 0.246435
-0.568956 -0.160865 0.279272
0.730145 -0.146941 0.281708
0.999292 -0.127708 0.280155
-0.730264 -0.0842555 0.231289
-0.570403 -0.0596254 0.2718
0.685186 -0.0315496 0.290602
0.724727 -0.026712 0.288007
-0.72652 0.0425553 0.208045
-0.560046 0.0530902 0.259886
0.720268 0.0530902 0.259886
0.999292 0.00715189 0.256001
-0.72652 0.135515 0.226204
-0.5516 0.140965 0.247947
0.711823 0.140965 0.247947
0.999292 0.151002 0.288206
-0.72652 0.251186 0.220736
-0.543888 0.253457 0.28792
0.698969 0.294089 0.282766
0.704655 0.247858 0.286608
0.999292 0.294852 0.288206
-0.72652 0.343617 0.230499
-0.530205 0.333243 0.280552
0.689381 0.336249 0.2749
-0.730719 0.457863 0.238586
-0.50602 0.42705 0.258806
-0.494425 0.474523 0.273313
0.659476 0.450586 0.240845
0.999292 0.45069 0.288206
-0.725697 0.561102 0.252945
-0.699513 0.593395 0.249221
-0.474307 0.549972 0.254575
0.634398 0.548321 0.240845
0.999292 0.54659 0.288206
-0.715704 0.694805 0.251215
-0.699513 0.652905 0.24878
-0.433047 0.662807 0.258947
-0.388131 0.695794 0.271676
0.569951 0.683176 0.263317
0.608837 0.643958 0.264491
0.999292 0.654478 0.288206
-0.730085 0.741927 0.252417
-0.622971 0.798328 0.223796
-0.571196 0.798328 0.272103
-0.45039 0.798328 0.223796
-0.358455 0.71433 0.246334
-0.241856 0.747322 0.27211
-0.116532 0.738653 0.234921
-0.0336631 0.738681 0.239777
0.0451756 0.708815 0.240483
0.143123 0.762473 0.241052
0.247675 0.731225 0.241775
0.325087 0.744612 0.245233
0.458615 0.753572 0.244216
0.515024 0.705197 0.25927
0.65413 0.798328 0.288206
0.999292 0.776751 0.288206
-0.726519 -0.956646 0.343074
-0.676325 -0.916179 0.348239
-0.547179 -0.972906 0.33004
-0.481056 -0.919118 0.337693
-0.351736 -0.946012 0.356913
-0.220524 -0.97963 0.337696
-0.154853 -0.929537 0.364547
-0.0417512 -0.908748 0.330606
0.047937 -0.911046 0.326838
0.159635 -0.909389 0.332434
0.245993 -0.914966 0.338882
0.343815 -0.972906 0.32987
0.439918 -0.939289 0.346992
0.567845 -0.932565 0.335838
0.65413 -0.9998 0.352616
0.743174 -0.959459 0.331502
0.860913 -0.923509 0.346932
0.973405 -0.972828 0.336514
-0.727029 -0.86015 0.359014
-0.673943 -0.8803 0.344376
-0.545198 -0.880097 0.355927
-0.440182 -0.834816 0.322181
-0.348523 -0.867574 0.323912
-0.258846 -0.883033 0.327238
-0.149693 -0.89238 0.326574
-0.0674141 -0.883666 0.348079
0.0455709 -0.879398 0.340611
0.149336 -0.879267 0.337691
0.255199 -0.890792 0.327457
0.341284 -0.890533 0.329641
0.457159 -0.876766 0.326051
0.555267 -0.85627 0.335302
0.617918 -0.827193 0.324854
0.748206 -0.880502 0.364474
0.85827 -0.886529 0.356399
0.999292 -0.891912 0.384821
-0.699513 -0.769453 0.361231
-0.479297 -0.754002 0.350278
0.639519 -0.754002 0.350278
0.999292 -0.757053 0.344565
-0.699513 -0.64139 0.3738
-0.507481 -0.637325 0.341379
-0.493845 -0.69207 0.334705
0.663807 -0.652966 0.339472
-0.699513 -0.54162 0.343075
-0.530578 -0.540826 0.330978
0.69113 -0.539176 0.32886
0.999292 -0.568249 0.352616
-0.699513 -0.435894 0.350523
-0.550781 -0.430475 0.338781
0.71038 -0.434095 0.33467
-0.699513 -0.3394 0.350896
-0.558384 -0.343774 0.347826
0.718525 -0.349143 0.354644
0.999292 -0.370455 0.368719
-0.724529 -0.230272 0.354321
-0.699544 -0.26045 0.36085
-0.566498 -0.239849 0.350099
0.726105 -0.24954 0.352826
0.999292 -0.244586 0.320411
-0.729829 -0.16107 0.349435
-0.572669 -0.155921 0.345359
0.672057 -0.109359 0.387657
0.731802 -0.164685 0.338036
-0.730095 -0.0826166 0.34303
-0.573282 -0.0482787 0.339476
0.677254 -0.0480312 0.321714
0.71748 -0.0270118 0.301394
-0.72652 0.0284706 0.326176
-0.564787 0.0508292 0.345445
0.725009 0.0508292 0.345445
0.999292 0.00715183 0.384821
-0.72652 0.142029 0.339845
-0.555345 0.155649 0.343124
0.715567 0.155649 0.343124
0.999292 0.151002 0.352616
-0.72652 0.249601 0.338673
-0.549293 0.219342 0.334272
0.709588 0.218468 0.334345
0.999292 0.294852 0.320411
-0.72652 0.354181 0.336916
-0.520284 0.379079 0.307164
0.684969 0.367685 0.345246
-0.730538 0.463118 0.341029
-0.50752 0.437964 0.365193
-0.492271 0.488251 0.307164
0.662754 0.455627 0.35391
-0.726122 0.55927 0.358919
-0.69953 0.593566 0.360532
-0.475409 0.561583 0.355522
0.636286 0.55884 0.354313
-0.716626 0.694822 0.356378
-0.699522 0.662969 0.357041
-0.432283 0.667928 0.349292
-0.382803 0.698284 0.343279
0.579313 0.681177 0.345337
0.60918 0.648265 0.351466
0.999292 0.636497 0.304309
-0.730081 0.742608 0.356259
-0.657487 0.798328 0.352616
-0.53668 0.798328 0.320411
-0.467648 0.798328 0.368719
-0.361886 0.713207 0.35127
-0.204569 0.727221 0.356768
-0.120108 0.727171 0.344805
-0.0295037 0.745015 0.340931
0.0537669 0.709557 0.36918
0.154813 0.727171 0.344805
0.26071 0.731729 0.369448
0.349533 0.745032 0.356727
0.455648 0.731603 0.33753
0.520648 0.712612 0.35078
0.65413 0.798328 0.352616
0.83534 0.798328 0.304309
-0.726519 -0.959748 0.459662
-0.680625 -0.914792 0.450148
-0.542609 -0.955792 0.464883
-0.473466 -0.919118 0.435678
-0.366209 -0.948457 0.449054
-0.241069 -0.953696 0.454876
-0.159194 -0.905458 0.447216
-0.0447881 -0.918745 0.450025
0.0483509 -0.911232 0.444531
0.152715 -0.918175 0.447131
0.247409 -0.909218 0.453188
0.326787 -0.914429 0.450058
0.437144 -0.946012 0.455659
