# .PCD v.7 - Point Cloud Data file format
VERSION .7
FIELDS x y z
SIZE 4 4 4
TYPE F F F
COUNT 1 1 1
WIDTH 1665
HEIGHT 1
VIEWPOINT 0 0 0 1 0 0 0
POINTS 1665
DATA ascii
-0.3478 -0.545405 -0.897055
-0.274529 -0.572327 -0.897055
-0.135619 -0.536556 -0.897055
-0.0512814 -0.54997 -0.897055
0.0529007 -0.545499 -0.897055
0.137239 -0.558913 -0.897055
0.26225 -0.554084 -0.897055
0.344367 -0.548739 -0.897055
0.463466 -0.545471 -0.897055
0.542886 -0.561374 -0.897055
0.664003 -0.547848 -0.896436
0.75237 -0.547938 -0.86273
0.806482 -0.546492 -0.810563
-0.977465 -0.446871 -0.86183
-0.857401 -0.449141 -0.897055
-0.754577 -0.477389 -0.897055
-0.674727 -0.459708 -0.897055
-0.559676 -0.464128 -0.897055
-0.45502 -0.424345 -0.897055
-0.394541 -0.477389 -0.897055
-0.251377 -0.459199 -0.897055
-0.191845 -0.436486 -0.897055
-0.0760867 -0.438188 -0.897055
0.0529007 -0.456073 -0.897055
0.1422 -0.465015 -0.897055
0.25502 -0.452701 -0.897055
0.353716 -0.441121 -0.897055
0.437106 -0.451626 -0.897055
0.548859 -0.461918 -0.897055
0.668703 -0.449353 -0.896232
0.752532 -0.447461 -0.86274
0.806887 -0.445342 -0.809904
-0.977153 -0.347527 -0.862146
-0.866933 -0.345767 -0.897055
-0.760485 -0.375723 -0.897055
-0.660791 -0.34036 -0.897055
-0.54574 -0.344781 -0.897055
-0.446045 -0.309419 -0.897055
-0.340443 -0.375723 -0.897055
-0.215943 -0.318259 -0.897055
-0.1381 -0.357771 -0.897055
-0.0512814 -0.325384 -0.897055
0.0231344 -0.393475 -0.897055
0.138892 -0.348762 -0.897055
0.272172 -0.343933 -0.897055
0.358197 -0.345688 -0.897055
0.441432 -0.355586 -0.897055
0.548887 -0.344781 -0.897055
0.670192 -0.349086 -0.896237
0.752702 -0.347623 -0.86249
0.806153 -0.342055 -0.811144
-0.978218 -0.249668 -0.861777
-0.872078 -0.248798 -0.897055
-0.756471 -0.265216 -0.897055
-0.666699 -0.238694 -0.897055
-0.551648 -0.243115 -0.897055
-0.456914 -0.212173 -0.897055
-0.37659 -0.247535 -0.897055
-0.256578 -0.247535 -0.897055
-0.126644 -0.238694 -0.897055
-0.0297836 -0.260785 -0.897055
0.082667 -0.250393 -0.897055
0.181888 -0.250393 -0.897055
0.27373 -0.258927 -0.897055
0.357199 -0.248768 -0.897055
0.442519 -0.249008 -0.897055
0.551755 -0.238694 -0.897055
0.677625 -0.251137 -0.895952
0.751772 -0.247883 -0.863389
0.806287 -0.247141 -0.810928
-0.977535 -0.151546 -0.861977
-0.857586 -0.141448 -0.897055
-0.757418 -0.15913 -0.897055
-0.657566 -0.141448 -0.897055
-0.557555 -0.141448 -0.897055
-0.487627 -0.132608 -0.897055
-0.347455 -0.150289 -0.897055
-0.237681 -0.123767 -0.897055
-0.137513 -0.141448 -0.897055
-0.0373452 -0.15913 -0.897055
0.0648072 -0.176043 -0.897055
0.171966 -0.169909 -0.897055
0.275288 -0.173921 -0.897055
0.347627 -0.151026 -0.897055
0.437449 -0.146753 -0.897055
0.538569 -0.143217 -0.897055
0.682041 -0.153667 -0.89569
0.751919 -0.150037 -0.863534
0.80618 -0.145317 -0.8111
-0.97629 -0.0537609 -0.863679
-0.858533 -0.0353621 -0.897055
-0.758365 -0.0530432 -0.897055
-0.653472 -0.0397824 -0.897055
-0.558502 -0.0353621 -0.897055
-0.465107 -0.0412558 -0.897055
-0.363601 -0.0221013 -0.897055
-0.24855 -0.0265216 -0.897055
-0.168226 -0.0618837 -0.897055
-0.0784538 -0.0353621 -0.897055
0.0365972 -0.0397824 -0.897055
0.157886 -0.0711325 -0.897055
0.280579 -0.0515286 -0.897055
0.33578 -0.0358821 -0.897055
0.448078 -0.0397824 -0.897055
0.553721 -0.0309419 -0.897055
0.68374 -0.0446284 -0.895661
0.751746 -0.041285 -0.863807
0.805366 -0.0397449 -0.812409
-0.962671 0.025394 -0.859802
-0.853435 0.000199911 -0.853351
-0.742664 0 -0.842739
-0.644785 0.000327427 -0.835796
-0.568217 0.00040713 -0.8407
-0.466227 0.000291446 -0.827431
-0.349052 0.00106086 -0.824114
-0.239679 0.00225716 -0.846933
-0.153634 0 -0.851395
-0.0782825 0.00361658 -0.858571
0.0388098 0.00530432 -0.861149
0.152393 0.0189187 -0.871654
0.260699 0.0260207 -0.869021
0.351622 0.000922018 -0.871166
0.459453 0.00104006 -0.867764
0.556077 0.00113705 -0.853387
0.65478 0.00362132 -0.858823
0.744475 0.00864733 -0.846782
0.806864 0.0152966 -0.810002
-0.971099 0.174238 -0.865868
-0.898389 0.176811 -0.897055
-0.78142 0.15913 -0.897055
-0.665566 0.141448 -0.897055
-0.542436 0.154709 -0.897055
-0.427621 0.132608 -0.897055
-0.307609 0.132608 -0.897055
-0.297214 0.176811 -0.897055
-0.185518 0.141448 -0.897055
-0.0644662 0.145869 -0.897055
0.0598526 0.164837 -0.897055
0.162044 0.169909 -0.897055
0.277626 0.178316 -0.897055
0.328241 0.175714 -0.897055
0.45532 0.143217 -0.897055
0.564691 0.139975 -0.897055
0.67037 0.161108 -0.89619
0.752184 0.148356 -0.862539
0.807301 0.155601 -0.8093
-0.976091 0.265593 -0.862737
-0.885918 0.265241 -0.897055
-0.762708 0.238694 -0.897055
-0.640617 0.247535 -0.897055
-0.520605 0.247535 -0.897055
-0.408909 0.212173 -0.897055
-0.396435 0.265216 -0.897055
-0.28162 0.243115 -0.897055
-0.160569 0.247535 -0.897055
-0.0379576 0.259734 -0.897055
0.0628228 0.250393 -0.897055
0.162044 0.250393 -0.897055
0.276847 0.267768 -0.897055
0.351736 0.265503 -0.897055
0.447295 0.245325 -0.897055
0.550571 0.240904 -0.897055
0.668766 0.254227 -0.896191
0.751949 0.247309 -0.863033
0.807082 0.250393 -0.809651
-0.977163 0.356295 -0.861649
-0.871833 0.353796 -0.897055
-0.73464 0.358041 -0.897055
-0.615668 0.353621 -0.897055
-0.506051 0.309419 -0.897055
-0.491497 0.371302 -0.897055
-0.377723 0.344781 -0.897055
-0.255631 0.353621 -0.897055
-0.136375 0.352077 -0.897055
-0.0363983 0.362175 -0.897055
0.0628228 0.357704 -0.897055
0.162044 0.330876 -0.897055
0.276223 0.357214 -0.897055
0.369382 0.354281 -0.897055
0.430846 0.354884 -0.897055
0.550772 0.342571 -0.897055
0.667689 0.350213 -0.89622
0.752871 0.346774 -0.862499
0.807301 0.345185 -0.8093
-0.977273 0.447071 -0.862013
-0.857619 0.442367 -0.897055
-0.706572 0.477389 -0.897055
-0.590719 0.459708 -0.897055
-0.469667 0.464128 -0.897055
-0.352773 0.450867 -0.897055
-0.23484 0.448643 -0.897055
-0.135619 0.438188 -0.897055
-0.0363983 0.456073 -0.897055
0.0628228 0.465015 -0.897055
0.162044 0.451601 -0.897055
0.272951 0.446747 -0.897055
0.346964 0.444323 -0.897055
0.428552 0.442069 -0.897055
0.546992 0.465012 -0.897055
0.667289 0.447962 -0.896282
0.752551 0.447461 -0.862756
0.806863 0.445342 -0.810002
-0.977777 0.537855 -0.861463
-0.84461 0.531006 -0.897055
-0.68786 0.556953 -0.897055
-0.565769 0.565794 -0.897055
-0.447836 0.556953 -0.897055
-0.334061 0.536746 -0.897055
-0.23484 0.558913 -0.897055
-0.135619 0.545499 -0.897055
-0.0363983 0.54997 -0.897055
0.0628228 0.536556 -0.897055
0.162044 0.572327 -0.897055
0.275288 0.536097 -0.897055
0.354755 0.533494 -0.897055
0.458074 0.530573 -0.897055
0.557602 0.561374 -0.897055
0.665931 0.544758 -0.896307
0.752108 0.547983 -0.863046
0.806863 0.546393 -0.810002
-0.977873 0.628553 -0.861659
-0.837876 0.619837 -0.897055
-0.795269 0.618837 -0.897055
-0.669149 0.636518 -0.897055
-0.549136 0.636518 -0.897055
-0.433283 0.629414 -0.897055
-0.334061 0.643867 -0.897055
-0.23484 0.648339 -0.897055
-0.135619 0.65281 -0.897055
-0.0363983 0.643867 -0.897055
0.0628228 0.643867 -0.897055
0.162044 0.65281 -0.897055
0.268536 0.625744 -0.897055
0.348522 0.623124 -0.897055
0.471366 0.619313 -0.897055
0.520144 0.621784 -0.897055
0.66319 0.640235 -0.89626
0.752889 0.646691 -0.862514
0.807559 0.645493 -0.808884
-0.976698 0.720036 -0.863049
-0.836424 0.738466 -0.897055
-0.779079 0.759245 -0.897055
-0.634843 0.783918 -0.897055
-0.532504 0.724975 -0.897055
-0.433283 0.746707 -0.897055
-0.334061 0.751179 -0.897055
-0.23484 0.737765 -0.897055
-0.135619 0.760121 -0.897055
-0.0363983 0.737765 -0.897055
0.0628228 0.751179 -0.897055
0.162044 0.733293 -0.897055
0.269575 0.715136 -0.897055
0.348522 0.71255 -0.897055
0.452252 0.747478 -0.897055
0.548263 0.753407 -0.897055
0.658989 0.74433 -0.896299
0.752663 0.745217 -0.862906
0.807273 0.744472 -0.809344
-0.976025 0.885168 -0.862962
-0.845743 0.892542 -0.897032
-0.756765 0.891661 -0.895704
-0.644328 0.87224 -0.89703
-0.54817 0.881873 -0.897023
-0.451886 0.886412 -0.897014
-0.351425 0.887513 -0.897014
-0.251632 0.885841 -0.89702
-0.155464 0.891035 -0.897015
-0.0529351 0.892611 -0.897008
0.051247 0.890768 -0.897009
0.149996 0.891039 -0.897008
0.27276 0.889208 -0.897024
0.355732 0.890613 -0.897032
0.44845 0.892988 -0.897031
0.572269 0.892269 -0.895991
0.640221 0.888259 -0.895957
0.751635 0.887593 -0.863663
0.805485 0.88527 -0.812153
-0.968592 0.984534 -0.848661
-0.840178 0.963473 -0.877443
-0.756715 0.937553 -0.883986
-0.669882 0.97903 -0.874396
-0.562234 0.979239 -0.872935
-0.454948 0.978531 -0.873924
-0.345796 0.979044 -0.87423
-0.234437 0.979294 -0.874687
-0.153238 0.978352 -0.869126
-0.079654 0.979043 -0.876136
0.0371148 0.98061 -0.874596
0.149375 0.980821 -0.874761
0.265288 0.982013 -0.875699
0.346959 0.979617 -0.873215
0.450227 0.976809 -0.873944
0.556743 0.966707 -0.877072
0.675905 0.980673 -0.874655
0.749308 0.984266 -0.840964
0.804323 0.925716 -0.809532
-0.960247 1 -0.83572
-0.817142 1 -0.857531
-0.697319 1 -0.857531
-0.577496 1 -0.857531
-0.457673 1 -0.857531
-0.33785 1 -0.857531
-0.218027 1 -0.857531
-0.098204 1 -0.857531
0.021619 1 -0.857531
0.141442 1 -0.857531
0.261265 1 -0.857531
0.344792 1 -0.857531
0.449202 1 -0.857531
0.553611 1 -0.857531
0.683014 1 -0.855171
0.738214 1 -0.829898
-0.964878 -0.984414 -0.766842
-0.848491 -0.982204 -0.751389
-0.753357 -0.9824 -0.751161
-0.653955 -0.98159 -0.750181
-0.546285 -0.982094 -0.751033
-0.451551 -0.982011 -0.750717
-0.353719 -0.981502 -0.749905
-0.248395 -0.981441 -0.749748
-0.160321 -0.981513 -0.749636
-0.0673056 -0.980797 -0.748885
0.0460907 -0.980753 -0.748961
0.154553 -0.980752 -0.748771
0.266368 -0.986659 -0.748624
0.347949 -0.981161 -0.748985
0.447718 -0.98422 -0.750948
0.564089 -0.985812 -0.749783
0.677467 -0.983605 -0.746945
0.734293 -0.987961 -0.730918
0.820604 -0.982803 -0.747488
-0.975198 -0.885614 -0.753291
-0.840075 -0.883016 -0.727092
-0.742335 -0.887204 -0.727101
-0.646462 -0.890151 -0.727089
-0.546245 -0.89707 -0.727097
-0.460141 -0.889244 -0.727081
-0.35407 -0.891851 -0.727091
-0.243786 -0.885345 -0.727087
-0.15211 -0.884056 -0.727077
-0.0576244 -0.890328 -0.727079
0.0521912 -0.88597 -0.727075
0.156254 -0.885137 -0.727069
0.267705 -0.875312 -0.727066
0.348577 -0.887091 -0.727078
0.441639 -0.890596 -0.72709
0.567486 -0.889399 -0.727082
0.676741 -0.886054 -0.725651
0.714427 -0.885591 -0.712469
0.835228 -0.885171 -0.752179
-0.975835 -0.743726 -0.75409
-0.830845 -0.724351 -0.727045
-0.666829 -0.72137 -0.727045
-0.506813 -0.751179 -0.727045
-0.410803 -0.769064 -0.727045
-0.320794 -0.746707 -0.727045
-0.242786 -0.733293 -0.727045
-0.158778 -0.760121 -0.727045
-0.0667682 -0.751179 -0.727045
0.0492435 -0.75416 -0.727045
0.156254 -0.748943 -0.727045
0.252417 -0.727928 -0.727045
0.34868 -0.749688 -0.727045
0.44638 -0.745217 -0.727045
0.564222 -0.724351 -0.727045
0.674746 -0.743248 -0.725727
0.712606 -0.745366 -0.713809
0.833901 -0.743493 -0.756055
-0.953048 -0.635509 -0.709536
-0.850763 -0.638898 -0.714854
-0.741993 -0.639171 -0.7154
-0.664315 -0.641004 -0.714199
-0.545721 -0.638425 -0.715753
-0.463796 -0.640683 -0.714687
-0.349333 -0.638232 -0.715625
-0.250524 -0.640872 -0.71464
-0.152425 -0.640465 -0.714496
-0.0500019 -0.638676 -0.715805
0.0396941 -0.640298 -0.714786
0.153313 -0.639139 -0.715458
0.246064 -0.640628 -0.714586
0.35761 -0.639732 -0.715256
0.461059 -0.637925 -0.713973
0.520902 -0.634703 -0.705457
0.67301 -0.643659 -0.725735
0.713095 -0.647172 -0.713395
0.834354 -0.645327 -0.754883
-0.954348 -0.554005 -0.719983
-0.848324 -0.553519 -0.725887
-0.740463 -0.559375 -0.726202
-0.665421 -0.552952 -0.72634
-0.542469 -0.552247 -0.726344
-0.466887 -0.557591 -0.726235
-0.34967 -0.558828 -0.726221
-0.252727 -0.554979 -0.726292
-0.150963 -0.557588 -0.726261
-0.0473566 -0.553017 -0.726336
0.0368637 -0.557244 -0.726243
0.153746 -0.558239 -0.726214
0.242405 -0.5544 -0.726324
0.356852 -0.555444 -0.726264
0.459251 -0.556149 -0.724703
0.526309 -0.555049 -0.713235
0.676485 -0.546645 -0.725656
0.713704 -0.548334 -0.712927
0.835603 -0.547287 -0.751531
-0.957894 -0.448905 -0.723161
-0.8492 -0.448174 -0.726638
-0.743836 -0.44684 -0.727046
-0.659788 -0.449876 -0.727046
-0.545655 -0.455892 -0.727046
-0.460742 -0.440216 -0.727046
-0.350598 -0.447204 -0.727046
-0.256772 -0.449164 -0.727046
-0.150393 -0.449581 -0.727045
-0.0500402 -0.45448 -0.727046
0.0442989 -0.441724 -0.727046
0.152112 -0.447435 -0.727046
0.248152 -0.450619 -0.727046
0.357709 -0.447166 -0.727017
0.457505 -0.449966 -0.725478
0.527204 -0.445973 -0.714154
0.674988 -0.447556 -0.725543
0.714563 -0.447589 -0.712315
0.836236 -0.448553 -0.749914
-0.958163 -0.357783 -0.724036
-0.846838 -0.359011 -0.726671
-0.741339 -0.358141 -0.727046
-0.663799 -0.360128 -0.727046
-0.541898 -0.357601 -0.727046
-0.467639 -0.361616 -0.727046
-0.349272 -0.352669 -0.727045
-0.253759 -0.366222 -0.727046
-0.14927 -0.352542 -0.727046
-0.0444207 -0.360575 -0.727046
0.0385346 -0.35929 -0.727046
0.151461 -0.356141 -0.727046
0.241883 -0.361264 -0.727046
0.356855 -0.360031 -0.727024
0.457948 -0.35897 -0.725517
0.527226 -0.360816 -0.714331
0.674941 -0.347197 -0.72566
0.714382 -0.348314 -0.712377
0.835933 -0.348563 -0.750374
-0.956799 -0.24479 -0.725808
-0.849265 -0.243387 -0.726638
-0.740022 -0.244816 -0.727046
-0.668929 -0.244049 -0.727046
-0.544697 -0.244234 -0.727046
-0.465701 -0.237725 -0.727045
-0.348158 -0.246849 -0.727046
-0.248738 -0.240121 -0.727046
-0.152608 -0.253775 -0.727046
-0.0528479 -0.244369 -0.727046
0.0361721 -0.238465 -0.727045
0.156547 -0.245399 -0.727045
0.246836 -0.244935 -0.727046
0.35353 -0.240429 -0.727025
0.46131 -0.245559 -0.725416
0.528645 -0.241967 -0.713844
0.676144 -0.249561 -0.725547
0.715843 -0.249275 -0.711253
0.83773 -0.250194 -0.745802
-0.961031 -0.154717 -0.727065
-0.849886 -0.155101 -0.72664
-0.746431 -0.150819 -0.727046
-0.664288 -0.157835 -0.727045
-0.546836 -0.157429 -0.727046
-0.457619 -0.153523 -0.727045
-0.354483 -0.148937 -0.727046
-0.250605 -0.160162 -0.727045
-0.151699 -0.152325 -0.727046
-0.0525344 -0.15732 -0.727045
0.0449747 -0.153977 -0.727045
0.152385 -0.153204 -0.727046
0.252638 -0.157633 -0.727046
0.355176 -0.154766 -0.727018
0.459339 -0.154661 -0.725445
0.528747 -0.155524 -0.715062
0.676287 -0.150561 -0.725513
0.716715 -0.151488 -0.71059
0.838776 -0.153 -0.743218
-0.960019 -0.0470133 -0.730445
-0.845674 -0.0443961 -0.726712
-0.740718 -0.0458761 -0.727046
-0.661099 -0.0446263 -0.727045
-0.540401 -0.0451803 -0.727045
-0.467185 -0.0427891 -0.727045
-0.348301 -0.0516513 -0.727045
-0.261041 -0.0367751 -0.727045
-0.150367 -0.0550651 -0.727046
-0.0437951 -0.0427382 -0.727046
0.0368389 -0.0438683 -0.727045
0.152552 -0.0513783 -0.727045
0.246639 -0.0446472 -0.727046
0.35763 -0.0429008 -0.727026
0.456074 -0.0457745 -0.725558
0.530612 -0.0429085 -0.714351
0.680102 -0.0568199 -0.725545
0.717394 -0.0429681 -0.710093
0.838524 -0.0539006 -0.743552
-0.958087 0.0300542 -0.738165
-0.853896 0.00966942 -0.745397
-0.744631 0.00772089 -0.748037
-0.642531 0.00682197 -0.753265
-0.560295 0.00915282 -0.741379
-0.473542 0.0053087 -0.751652
-0.358153 0.00523253 -0.754349
-0.241603 0.0046517 -0.755884
-0.125887 0.00462712 -0.750977
-0.0728829 0.0145647 -0.743668
0.0183471 0.00543328 -0.742465
0.140147 0.00659702 -0.73572
0.257687 0.0222338 -0.737994
0.353491 0.0144094 -0.744881
0.454064 0.0168626 -0.745221
0.542984 0.0171609 -0.735772
0.659091 0.00573928 -0.741545
0.747436 0.00229053 -0.723339
0.824812 0.00583679 -0.724923
-0.959225 0.159868 -0.728161
-0.851285 0.157173 -0.726605
-0.743967 0.154878 -0.727046
-0.666284 0.159666 -0.727046
-0.546458 0.157926 -0.727046
-0.459975 0.156228 -0.727046
-0.353332 0.153965 -0.727046
-0.247388 0.161532 -0.727046
-0.151699 0.155195 -0.727046
-0.0528617 0.157553 -0.727046
0.0469261 0.156833 -0.727045
0.153853 0.158877 -0.727046
0.249001 0.160176 -0.727046
0.352332 0.158096 -0.727021
0.461518 0.15699 -0.725389
0.528711 0.159368 -0.71329
0.676779 0.178852 -0.72568
0.713863 0.155946 -0.712869
0.833208 0.17121 -0.757362
-0.958898 0.248343 -0.725342
-0.847918 0.244424 -0.726651
-0.741663 0.247124 -0.727046
-0.668354 0.24452 -0.727046
-0.545045 0.245213 -0.727046
-0.463716 0.241401 -0.727045
-0.349552 0.249378 -0.727045
-0.250341 0.240536 -0.727046
-0.152917 0.254609 -0.727046
-0.0513904 0.244729 -0.727046
0.0386368 0.24328 -0.727046
0.154297 0.247885 -0.727045
0.244976 0.245588 -0.727046
0.355695 0.243221 -0.727022
0.46021 0.246534 -0.725441
0.526535 0.243458 -0.714576
0.6749 0.268278 -0.725672
0.714 0.253115 -0.712668
0.834899 0.264811 -0.753469
-0.958024 0.358358 -0.725359
-0.844944 0.358895 -0.726695
-0.741139 0.356286 -0.727046
-0.664164 0.362561 -0.727046
-0.540512 0.359975 -0.727046
-0.466511 0.359686 -0.727046
-0.348307 0.35124 -0.727045
-0.257982 0.367524 -0.727046
-0.149556 0.351664 -0.727046
-0.0447972 0.361309 -0.727046
0.0370793 0.358377 -0.727046
0.151971 0.353337 -0.727046
0.240327 0.363537 -0.727046
0.359299 0.360273 -0.727024
0.456536 0.359009 -0.725561
0.527399 0.36059 -0.713849
0.674786 0.357704 -0.725646
0.713931 0.349385 -0.712706
0.835967 0.356586 -0.750851
-0.958202 0.445996 -0.723721
-0.850975 0.446867 -0.726609
-0.743316 0.444764 -0.727046
-0.660345 0.448796 -0.727046
-0.546562 0.453674 -0.727046
-0.461596 0.438219 -0.727046
-0.351291 0.446492 -0.727046
-0.251942 0.446817 -0.727046
-0.150835 0.447 -0.727046
-0.0502538 0.452785 -0.727046
0.0452062 0.440202 -0.727046
0.151756 0.445748 -0.727046
0.248623 0.448659 -0.727046
0.354765 0.445924 -0.727019
0.459299 0.448363 -0.725434
0.527662 0.447173 -0.71413
0.674723 0.44713 -0.725628
0.714241 0.44713 -0.712456
0.83652 0.447503 -0.749302
-0.954449 0.553406 -0.720382
-0.846624 0.555443 -0.725918
-0.740885 0.55846 -0.726235
-0.665283 0.554218 -0.726309
-0.542109 0.551584 -0.726364
-0.466616 0.55747 -0.72626
-0.349401 0.557903 -0.726248
-0.254265 0.554703 -0.726301
-0.150462 0.556503 -0.726263
-0.04857 0.549367 -0.726403
0.0394238 0.553532 -0.72634
0.153557 0.557354 -0.72625
0.242715 0.554515 -0.726312
0.357406 0.55468 -0.726292
0.458711 0.553063 -0.724779
0.526731 0.552631 -0.713127
0.674772 0.536556 -0.725626
0.714604 0.545281 -0.712178
0.836981 0.538233 -0.747898
-0.952732 0.634552 -0.709573
-0.848529 0.637698 -0.715647
-0.742394 0.63855 -0.715837
-0.665111 0.63877 -0.715738
-0.54516 0.637463 -0.716034
-0.464108 0.638457 -0.71607
-0.349575 0.637772 -0.716038
-0.251378 0.638485 -0.715933
-0.150841 0.637883 -0.715844
-0.0487143 0.637062 -0.716264
0.0381801 0.636948 -0.716543
0.153248 0.638415 -0.71583
0.246167 0.638593 -0.715856
0.35952 0.638654 -0.715577
0.460534 0.636806 -0.714471
0.520677 0.634115 -0.70578
0.678611 0.625982 -0.725568
0.714893 0.64259 -0.711993
0.837579 0.628777 -0.746275
-0.973431 0.727066 -0.752026
-0.854848 0.715408 -0.727045
-0.758838 0.715408 -0.727045
-0.602822 0.715408 -0.727045
-0.506813 0.715408 -0.727045
-0.410803 0.715408 -0.727045
-0.314793 0.715408 -0.727045
-0.218784 0.715408 -0.727045
-0.122774 0.715408 -0.727045
-0.0267642 0.715408 -0.727045
0.0692455 0.715408 -0.727045
0.165255 0.715408 -0.727045
0.277462 0.715408 -0.727045
0.338837 0.730738 -0.727045
0.456958 0.748624 -0.727045
0.559706 0.731411 -0.727045
0.677487 0.715408 -0.725617
0.71618 0.741009 -0.71102
0.838086 0.719321 -0.744799
-0.974006 0.886108 -0.752666
-0.829801 0.871984 -0.727065
-0.710833 0.804834 -0.727045
-0.693498 0.891021 -0.727077
-0.57882 0.896267 -0.727082
-0.461058 0.890729 -0.727083
-0.341996 0.890521 -0.727086
-0.22307 0.890236 -0.727089
-0.170779 0.804834 -0.727045
-0.0957712 0.888969 -0.727085
0.0234227 0.888286 -0.727085
0.142453 0.887392 -0.727084
0.273356 0.866768 -0.727073
0.354439 0.890487 -0.727089
0.451172 0.888707 -0.72709
0.560153 0.875498 -0.72708
0.675705 0.885408 -0.725694
0.715391 0.887828 -0.711631
0.835977 0.886244 -0.750573
-0.964888 0.984312 -0.766773
-0.832112 0.98296 -0.75225
-0.750532 0.991816 -0.758986
-0.6816 0.981377 -0.749878
-0.568101 0.981079 -0.750302
-0.45608 0.980228 -0.749674
-0.343017 0.980337 -0.749318
-0.227565 0.980187 -0.74909
-0.160635 0.99053 -0.754281
-0.089249 0.980019 -0.748304
0.0290647 0.980464 -0.748718
0.145784 0.980681 -0.748581
0.266885 0.988685 -0.749358
0.350502 0.985961 -0.751953
0.45011 0.982479 -0.750472
0.56099 0.983629 -0.748964
0.677106 0.983511 -0.746779
0.734203 0.987993 -0.730897
0.820624 0.982775 -0.747397
-0.956023 1 -0.778439
-0.817142 1 -0.766569
-0.697319 1 -0.766569
-0.577496 1 -0.766569
-0.457673 1 -0.766569
-0.33785 1 -0.766569
-0.218027 1 -0.766569
-0.098204 1 -0.766569
0.0216189 1 -0.766569
0.141442 1 -0.766569
0.276691 1 -0.766569
0.353822 1 -0.766569
0.44638 1 -0.766569
0.556632 1 -0.766569
0.669416 1 -0.76566
0.747769 1 -0.747723
0.812311 1 -0.729537
0.763966 -0.982255 -0.652048
0.84109 -0.985998 -0.650808
0.746947 -0.8864 -0.652607
0.858545 -0.886344 -0.648208
0.747158 -0.743124 -0.651873
0.857937 -0.741871 -0.656189
-0.967613 -0.645011 -0.662764
-0.849987 -0.663391 -0.661458
-0.750319 -0.664053 -0.660908
-0.657745 -0.664218 -0.661177
-0.544377 -0.664097 -0.660582
-0.453397 -0.664038 -0.662226
-0.354687 -0.664197 -0.659242
-0.244716 -0.663989 -0.664587
-0.155393 -0.664241 -0.660171
-0.0477082 -0.664042 -0.661027
0.046524 -0.663943 -0.663016
0.149494 -0.664156 -0.659855
0.249827 -0.664223 -0.66106
0.361656 -0.663931 -0.662129
0.459469 -0.661559 -0.659586
0.528105 -0.644513 -0.662738
0.747214 -0.644753 -0.651757
0.857997 -0.644785 -0.655751
-0.988569 -0.555341 -0.659129
0.546123 -0.557956 -0.660021
0.747005 -0.546933 -0.652537
0.858324 -0.546675 -0.651267
-0.989927 -0.456305 -0.65895
0.547579 -0.439849 -0.659379
0.747044 -0.447046 -0.65219
0.858459 -0.446213 -0.649182
-0.990006 -0.352946 -0.659195
0.547489 -0.353884 -0.658471
0.74697 -0.347243 -0.652815
0.858537 -0.346927 -0.64821
-0.989961 -0.244012 -0.659188
0.547635 -0.246255 -0.659133
0.74701 -0.249373 -0.652372
0.858841 -0.248937 -0.643786
-0.990034 -0.154971 -0.659077
0.547502 -0.143717 -0.659245
0.746992 -0.15086 -0.652324
0.858979 -0.150108 -0.641608
-0.989878 -0.056499 -0.658605
0.54766 -0.0446224 -0.659065
0.746784 -0.0508803 -0.652525
0.859278 -0.0541326 -0.636733
-0.990022 0.0400769 -0.659074
0.54742 0.0450638 -0.658724
0.768185 0.00548187 -0.650838
0.832671 0.00212715 -0.643797
-0.989913 0.145325 -0.659245
0.547616 0.156575 -0.659077
0.747085 0.168407 -0.651861
0.857997 0.177543 -0.655698
-0.990055 0.247329 -0.659152
0.547547 0.245551 -0.659188
0.747425 0.262213 -0.651184
0.858086 0.266822 -0.653536
-0.989885 0.352929 -0.65853
0.54759 0.354342 -0.659195
0.747361 0.354539 -0.651599
0.858216 0.356852 -0.652841
-0.990002 0.440121 -0.659312
0.547513 0.456143 -0.658992
0.74726 0.44713 -0.652083
0.85843 0.446506 -0.649819
-0.988539 0.557339 -0.659218
0.546251 0.555147 -0.659105
0.74721 0.539694 -0.652107
0.858586 0.53718 -0.647801
-0.96739 0.644714 -0.662319
-0.850963 0.662784 -0.65714
-0.748902 0.663397 -0.659204
-0.65821 0.663541 -0.655449
-0.545405 0.663365 -0.659173
-0.454042 0.66367 -0.655879
-0.353914 0.663478 -0.658331
-0.243582 0.663348 -0.661143
-0.156239 0.66346 -0.656702
-0.0485935 0.663372 -0.659065
0.0455913 0.663575 -0.657061
0.150589 0.663345 -0.659677
0.251754 0.663464 -0.657794
0.36235 0.663557 -0.655806
0.459328 0.660871 -0.658611
0.528126 0.643979 -0.662607
0.74706 0.631943 -0.652397
0.858728 0.626834 -0.646969
0.746818 0.725608 -0.652829
0.858959 0.719582 -0.642047
0.747231 0.885259 -0.651673
0.858501 0.884928 -0.646783
0.763986 0.982431 -0.652034
0.84123 0.985901 -0.650708
0.778238 1 -0.652317
0.829146 1 -0.650829
0.764094 -0.986241 -0.57418
0.834821 -0.984779 -0.549472
0.747328 -0.884823 -0.578348
0.85205 -0.886654 -0.549341
0.746885 -0.741521 -0.576831
0.853215 -0.744243 -0.55426
-0.968511 -0.64626 -0.554412
-0.850612 -0.665049 -0.552693
-0.747626 -0.665779 -0.554736
-0.657497 -0.665778 -0.555682
-0.55277 -0.665778 -0.555246
-0.449498 -0.665778 -0.547127
-0.35519 -0.665778 -0.550068
-0.2422 -0.665778 -0.558167
-0.157566 -0.665778 -0.550609
-0.0506517 -0.665778 -0.555373
0.0455635 -0.665779 -0.559194
0.151242 -0.665778 -0.552455
0.252841 -0.665777 -0.556314
0.364382 -0.665689 -0.549508
0.458473 -0.663243 -0.551533
0.529341 -0.645587 -0.554435
0.74742 -0.644326 -0.578276
0.852741 -0.645432 -0.552817
-0.990321 -0.555356 -0.55269
0.547777 -0.55633 -0.551607
0.747181 -0.545969 -0.577969
0.851745 -0.546416 -0.548774
-0.991654 -0.457977 -0.550021
0.549149 -0.437536 -0.554984
0.746802 -0.446424 -0.576865
0.85183 -0.446405 -0.548637
-0.991654 -0.354172 -0.552432
0.549149 -0.354931 -0.544817
0.746959 -0.347844 -0.577589
0.851562 -0.346644 -0.547752
-0.991654 -0.243888 -0.555435
0.549149 -0.245286 -0.553276
0.746365 -0.24952 -0.576013
0.850472 -0.248866 -0.543042
-0.991654 -0.156714 -0.549533
0.54915 -0.143016 -0.553879
0.746061 -0.151164 -0.575267
0.849916 -0.149831 -0.540601
-0.991654 -0.0559814 -0.55115
0.549149 -0.0415675 -0.551214
0.745503 -0.056772 -0.573634
0.84986 -0.0472169 -0.540083
-0.991654 0.0393393 -0.55139
0.54915 0.0466505 -0.551536
0.76819 0.00536818 -0.573015
0.833046 0.00379293 -0.559633
-0.991654 0.144624 -0.553879
0.549149 0.158317 -0.549533
0.74735 0.178852 -0.577865
0.853256 0.161744 -0.555591
-0.991654 0.246537 -0.553126
0.54915 0.245427 -0.555435
0.74692 0.268278 -0.577016
0.85241 0.257771 -0.551276
-0.991654 0.353351 -0.546027
0.549149 0.355564 -0.552432
0.7473 0.357704 -0.578205
0.85216 0.352115 -0.550297
-0.991654 0.437579 -0.55418
0.549149 0.458271 -0.549443
0.747 0.44713 -0.577656
0.851822 0.447359 -0.548317
-0.990203 0.556985 -0.551607
0.5479 0.555472 -0.552942
0.746687 0.536556 -0.576883
0.851627 0.54183 -0.547651
-0.968963 0.645759 -0.55424
-0.849293 0.664276 -0.550298
-0.750111 0.664961 -0.554697
-0.655932 0.664961 -0.552125
-0.551539 0.66496 -0.554438
-0.446969 0.66496 -0.548642
-0.355904 0.66496 -0.550626
-0.245224 0.66496 -0.548974
-0.158373 0.66496 -0.556188
-0.056834 0.66496 -0.553756
0.0502629 0.66496 -0.554288
0.148822 0.66496 -0.553902
0.24995 0.664961 -0.547103
0.362282 0.664896 -0.552697
0.458392 0.662459 -0.550892
0.529198 0.645174 -0.554498
0.745912 0.625982 -0.574904
0.851409 0.63748 -0.54744
0.745681 0.715408 -0.574238
0.85067 0.733476 -0.544897
0.746033 0.885781 -0.57476
0.851177 0.886485 -0.545762
0.764135 0.986276 -0.574396
0.834873 0.984736 -0.549336
0.776091 1 -0.571223
0.821564 1 -0.550256
0.692912 -0.960477 -0.417621
0.748095 -0.989373 -0.448039
0.817827 -0.982299 -0.487
0.688293 -0.891599 -0.431679
0.727572 -0.887957 -0.464313
0.829906 -0.883064 -0.477352
0.685466 -0.753414 -0.424933
0.753577 -0.742236 -0.444064
0.828487 -0.747739 -0.474133
-0.96859 -0.646099 -0.445883
-0.849184 -0.66508 -0.446413
-0.752167 -0.665779 -0.449199
-0.658827 -0.665778 -0.441061
-0.542428 -0.665778 -0.450444
-0.453975 -0.665778 -0.447349
-0.354849 -0.665778 -0.452233
-0.244572 -0.665778 -0.438617
-0.158448 -0.665778 -0.444376
-0.0520136 -0.665778 -0.44881
0.0495575 -0.665778 -0.446363
0.148228 -0.665778 -0.448958
0.248886 -0.665779 -0.441148
0.362776 -0.665711 -0.448652
0.457947 -0.663237 -0.446101
0.529292 -0.64543 -0.445316
0.68728 -0.646848 -0.42932
0.736293 -0.640887 -0.450893
0.828523 -0.646352 -0.474229
-0.990334 -0.554859 -0.447356
0.547773 -0.555857 -0.447999
0.690269 -0.54848 -0.436547
0.740585 -0.545499 -0.461173
0.828475 -0.551002 -0.474102
-0.991654 -0.457177 -0.450239
0.549149 -0.439415 -0.445996
0.686106 -0.444895 -0.426481
0.703075 -0.429245 -0.467518
0.829855 -0.454156 -0.477514
-0.991654 -0.349612 -0.447026
0.54915 -0.352201 -0.455814
0.696032 -0.335348 -0.450484
0.740158 -0.363666 -0.460141
0.829857 -0.350997 -0.477479
-0.991654 -0.240895 -0.446627
0.549149 -0.244745 -0.444914
0.690269 -0.250393 -0.436547
0.708838 -0.245922 -0.481455
0.830227 -0.251387 -0.478348
-0.991654 -0.15772 -0.448175
0.54915 -0.142648 -0.448677
0.688348 -0.147553 -0.431901
0.709052 -0.143082 -0.481972
0.827086 -0.166332 -0.471227
-0.991654 -0.0574794 -0.451601
0.54915 -0.0486506 -0.445849
0.692403 -0.0566365 -0.441709
0.708625 -0.0506748 -0.480939
0.830895 -0.0468172 -0.479745
-0.991654 0.0430297 -0.447395
0.54915 0.0448858 -0.452767
0.691378 0.00993623 -0.425225
0.765042 0.00023288 -0.441088
0.818801 0.00766509 -0.47576
-0.991654 0.144257 -0.448677
0.549149 0.159323 -0.448175
0.687707 0.178852 -0.430353
0.708198 0.178852 -0.479907
0.829065 0.160251 -0.47569
-0.991654 0.245554 -0.445014
0.54915 0.242437 -0.446627
0.690269 0.268278 -0.436547
0.753577 0.268278 -0.444064
0.827628 0.256355 -0.472535
-0.991654 0.35203 -0.455211
0.549149 0.351011 -0.447026
0.690269 0.357704 -0.436547
0.739304 0.357704 -0.458076
0.828445 0.351146 -0.474288
-0.991654 0.440396 -0.446159
0.549149 0.456442 -0.450547
0.69283 0.44713 -0.442741
0.738427 0.44713 -0.456055
0.829202 0.448408 -0.476041
-0.990199 0.556515 -0.447999
0.547926 0.554374 -0.447272
0.686853 0.536556 -0.428288
0.730887 0.536556 -0.461985
0.830719 0.546187 -0.479598
-0.968738 0.64562 -0.445911
-0.850396 0.664252 -0.452281
-0.749526 0.664961 -0.450682
-0.657937 0.664961 -0.454987
-0.545387 0.66496 -0.451409
-0.454556 0.66496 -0.449725
-0.353513 0.66496 -0.451118
-0.245021 0.66496 -0.450677
-0.154183 0.66496 -0.455097
-0.0483477 0.66496 -0.45154
0.0467858 0.66496 -0.449528
0.149122 0.66496 -0.451687
0.249388 0.664961 -0.454314
0.360781 0.664899 -0.450519
0.458723 0.662442 -0.452707
0.529215 0.645042 -0.445785
0.687707 0.625982 -0.430353
0.7114 0.625982 -0.48765
0.829981 0.63974 -0.477918
0.687707 0.715408 -0.430353
0.753577 0.715408 -0.444064
0.832016 0.734784 -0.482579
0.686948 0.890628 -0.428436
0.72348 0.892236 -0.461385
0.828159 0.890216 -0.473505
0.692808 0.964841 -0.414752
0.747903 0.989728 -0.447678
0.817741 0.982259 -0.486888
0.755292 1 -0.447643
0.806192 1 -0.498824
0.670116 -0.981152 -0.344722
0.750912 -0.981883 -0.349898
0.652012 -0.886642 -0.343961
0.772516 -0.888881 -0.350217
0.649927 -0.751179 -0.338987
0.775809 -0.751179 -0.357366
-0.968169 -0.646208 -0.348555
-0.851265 -0.665038 -0.345461
-0.748241 -0.665778 -0.345411
-0.657293 -0.665778 -0.344657
-0.546468 -0.665778 -0.347996
-0.456404 -0.665778 -0.341464
-0.351681 -0.665778 -0.346927
-0.243931 -0.665778 -0.344529
-0.156536 -0.665778 -0.3472
-0.0509753 -0.665778 -0.346641
0.0492022 -0.665778 -0.341837
0.146097 -0.665778 -0.347445
0.254462 -0.665778 -0.346821
0.360909 -0.665717 -0.344339
0.459724 -0.663185 -0.346236
0.52922 -0.645541 -0.348444
0.652062 -0.654301 -0.344149
0.774112 -0.647444 -0.353636
-0.990222 -0.557929 -0.349273
0.547785 -0.557203 -0.348524
0.650141 -0.551461 -0.339504
0.769026 -0.546989 -0.342462
-0.991654 -0.455401 -0.348228
0.549149 -0.439657 -0.349646
0.658892 -0.456073 -0.360667
0.771051 -0.444149 -0.346912
-0.991654 -0.357454 -0.348298
0.549149 -0.354442 -0.347626
0.653861 -0.353872 -0.3485
0.773842 -0.345184 -0.353043
-0.991654 -0.248054 -0.35157
0.549149 -0.247759 -0.349123
0.656715 -0.248604 -0.355402
0.774877 -0.254864 -0.355317
-0.991654 -0.151837 -0.347863
0.54915 -0.145716 -0.350722
0.653897 -0.15739 -0.348589
0.770826 -0.147553 -0.346418
-0.991654 -0.0554129 -0.349032
0.549149 -0.0392015 -0.348809
0.657611 -0.0670695 -0.35757
0.770331 -0.0643867 -0.34533
-0.991654 0.0364015 -0.347928
0.54915 0.0458087 -0.347403
0.673172 0.0024007 -0.339037
0.736689 0.00149043 -0.362534
-0.991654 0.147323 -0.350722
0.549149 0.153442 -0.347863
0.649287 0.178852 -0.337439
0.771951 0.178852 -0.34889
-0.991654 0.249294 -0.349123
0.54915 0.249588 -0.35157
0.650019 0.268278 -0.339209
0.772761 0.268278 -0.35067
-0.991654 0.352866 -0.347544
0.549149 0.358842 -0.348298
0.652946 0.357704 -0.346288
0.774652 0.357704 -0.354823
-0.991654 0.438973 -0.34961
0.549149 0.456023 -0.348211
0.65441 0.44713 -0.349827
0.771726 0.44713 -0.348395
-0.990212 0.557853 -0.348525
0.547803 0.558206 -0.349276
0.65441 0.536556 -0.349827
0.774652 0.536556 -0.354823
-0.968416 0.645767 -0.34908
-0.851265 0.664235 -0.352374
-0.748241 0.664961 -0.352589
-0.657293 0.664961 -0.353086
-0.546468 0.66496 -0.349949
-0.456404 0.66496 -0.356387
-0.351681 0.66496 -0.351108
-0.243931 0.66496 -0.353236
-0.156536 0.66496 -0.35058
-0.0509753 0.66496 -0.351357
0.0447468 0.66496 -0.35606
0.151719 0.66496 -0.350543
0.251121 0.664961 -0.352485
0.360909 0.6649 -0.353546
0.459725 0.662421 -0.351649
0.529185 0.645021 -0.348847
0.651848 0.625982 -0.343633
0.774652 0.625982 -0.354823
0.651848 0.715408 -0.343633
0.771951 0.715408 -0.34889
0.655649 0.887024 -0.352743
0.773182 0.888105 -0.351671
0.669508 0.980523 -0.343776
0.75091 0.981666 -0.349573
0.679909 1 -0.331305
0.730669 1 -0.361803
0.598616 -0.915113 -0.205288
0.627825 -0.985825 -0.228179
0.715678 -0.974399 -0.258842
0.598278 -0.887758 -0.207335
0.610599 -0.885461 -0.241966
0.721996 -0.888874 -0.239203
0.597986 -0.728822 -0.206455
0.609899 -0.741152 -0.24015
0.726854 -0.727928 -0.249808
-0.968386 -0.646087 -0.251188
-0.850707 -0.665048 -0.249019
-0.749312 -0.665779 -0.249865
-0.657349 -0.665779 -0.247555
-0.545349 -0.665778 -0.248838
-0.454736 -0.665778 -0.251943
-0.352044 -0.665778 -0.250287
-0.244752 -0.665778 -0.248706
-0.154217 -0.665778 -0.246459
-0.0487057 -0.665778 -0.248968
0.0467087 -0.665778 -0.251698
0.148529 -0.665778 -0.247795
0.25021 -0.665779 -0.247438
0.360303 -0.665715 -0.250427
0.458687 -0.663199 -0.248712
0.529472 -0.645315 -0.251262
0.609868 -0.64318 -0.240106
0.729554 -0.638502 -0.255741
-0.990334 -0.55488 -0.24862
0.548474 -0.555472 -0.247607
0.609403 -0.547054 -0.239031
0.720103 -0.540133 -0.234975
-0.991654 -0.457125 -0.247303
0.549996 -0.439805 -0.249071
0.610016 -0.447846 -0.240559
0.725234 -0.452496 -0.246248
-0.991654 -0.350605 -0.249259
0.551853 -0.352704 -0.241826
0.60925 -0.346729 -0.23873
0.725594 -0.3428 -0.247039
-0.991654 -0.242073 -0.247996
0.550694 -0.244525 -0.248336
0.609342 -0.251108 -0.238933
0.722162 -0.242568 -0.239499
-0.991654 -0.157227 -0.247283
0.552698 -0.14269 -0.245074
0.609339 -0.152863 -0.238918
0.721502 -0.142269 -0.23805
-0.991654 -0.0569907 -0.248301
0.552472 -0.0466219 -0.244737
0.609758 -0.0558913 -0.239973
0.719485 -0.044713 -0.233619
-0.991654 0.0420923 -0.248576
0.555642 0.0429918 -0.244399
0.637026 0.00526035 -0.229455
0.716886 0.00420828 -0.253803
-0.991654 0.144268 -0.247969
0.550387 0.15934 -0.246221
0.610315 0.178852 -0.241197
0.723343 0.178852 -0.242095
-0.991654 0.245609 -0.249476
0.550706 0.244397 -0.246697
0.609823 0.268278 -0.239993
0.724693 0.268278 -0.245061
-0.991654 0.352484 -0.2449
0.550376 0.352145 -0.248209
0.609807 0.357704 -0.240015
0.724693 0.357704 -0.245061
-0.991654 0.440382 -0.249388
0.550871 0.456391 -0.2454
0.609636 0.44713 -0.239667
0.726719 0.44713 -0.249511
-0.990209 0.556416 -0.248189
0.548772 0.554288 -0.24813
0.609938 0.536556 -0.240424
0.726044 0.536556 -0.248028
-0.967965 0.645818 -0.251042
-0.848293 0.664295 -0.247115
-0.750997 0.664961 -0.248196
-0.659613 0.664961 -0.24917
-0.542839 0.66496 -0.248015
-0.453921 0.664961 -0.243211
-0.356357 0.66496 -0.24409
-0.243205 0.66496 -0.255586
-0.157123 0.66496 -0.250651
-0.0458877 0.66496 -0.247312
0.0454984 0.664961 -0.245181
0.149351 0.66496 -0.24725
0.24874 0.664961 -0.249668
0.36425 0.664894 -0.245788
0.458465 0.662495 -0.248709
0.529211 0.645015 -0.250821
0.609311 0.625982 -0.238865
0.721693 0.625982 -0.238469
0.598835 0.715408 -0.209311
0.609541 0.715408 -0.23947
0.718542 0.715408 -0.231547
0.598053 0.88992 -0.206561
0.608638 0.882327 -0.23692
0.72408 0.88296 -0.243795
0.598561 0.914559 -0.205305
0.62762 0.985679 -0.22824
0.716038 0.973282 -0.259141
0.64746 1 -0.224002
0.712166 1 -0.292253
0.592473 -0.974946 -0.133246
0.649523 -0.987113 -0.15086
0.701369 -0.915708 -0.196258
0.583448 -0.885048 -0.149738
0.677843 -0.885635 -0.139567
0.701721 -0.89593 -0.194648
0.5836 -0.746341 -0.150503
0.678399 -0.742951 -0.140817
-0.96698 -0.644835 -0.146903
-0.849758 -0.663803 -0.151622
-0.750814 -0.664413 -0.149628
-0.659623 -0.664368 -0.152392
-0.548478 -0.664102 -0.148332
-0.451325 -0.664175 -0.152231
-0.354986 -0.663874 -0.147461
-0.244946 -0.664041 -0.149827
-0.158834 -0.664095 -0.147969
-0.0580927 -0.66403 -0.14824
0.0542554 -0.664164 -0.152069
0.148001 -0.664051 -0.146879
0.260267 -0.664445 -0.14966
0.363471 -0.664283 -0.149241
0.458536 -0.661866 -0.14918
0.527319 -0.644327 -0.144157
0.678368 -0.64508 -0.14071
-0.987494 -0.555236 -0.147278
0.547656 -0.556061 -0.150917
0.678357 -0.546962 -0.140698
-0.98875 -0.456655 -0.147254
0.550704 -0.439773 -0.147268
0.678008 -0.44729 -0.139753
0.70309 -0.402417 -0.197597
-0.98886 -0.353032 -0.148157
0.552408 -0.353339 -0.148733
0.678459 -0.347768 -0.14099
0.70174 -0.321934 -0.194631
-0.988574 -0.243692 -0.143754
0.551176 -0.246373 -0.148447
0.678192 -0.249922 -0.140304
0.70039 -0.24145 -0.191664
-0.988845 -0.155772 -0.149139
0.555658 -0.145916 -0.146861
0.678316 -0.151779 -0.140578
0.70174 -0.143082 -0.194631
-0.988726 -0.0564232 -0.146222
0.55384 -0.0452517 -0.14847
0.678097 -0.0514638 -0.140141
0.70174 -0.0536556 -0.194631
-0.988866 0.0400801 -0.148577
0.577375 0.0207941 -0.142994
0.651039 0.00271875 -0.148804
-0.988602 0.14502 -0.144511
0.552994 0.159206 -0.148636
0.678482 0.169109 -0.141068
-0.98883 0.246766 -0.147695
0.554645 0.249031 -0.145443
0.67871 0.262561 -0.141527
-0.988727 0.352749 -0.148026
0.55161 0.354693 -0.148916
0.678614 0.354673 -0.141305
-0.988787 0.438773 -0.146758
0.55116 0.452412 -0.148691
0.678312 0.44713 -0.140538
0.70309 0.44713 -0.197597
-0.987717 0.557011 -0.150965
0.547841 0.555344 -0.147912
0.678011 0.539588 -0.139771
0.70174 0.536556 -0.194631
-0.967225 0.644372 -0.146341
-0.857846 0.662597 -0.145236
-0.756786 0.66324 -0.143136
-0.648436 0.663244 -0.144406
-0.552606 0.663171 -0.145539
-0.444438 0.662909 -0.142873
-0.351356 0.663037 -0.145662
-0.243103 0.662785 -0.141867
-0.155519 0.662992 -0.146401
-0.0463506 0.663058 -0.144908
0.0448365 0.662793 -0.13887
0.152925 0.663099 -0.143151
0.24917 0.663204 -0.144133
0.360282 0.663262 -0.14131
0.459124 0.660876 -0.144231
0.527171 0.643898 -0.144612
0.677879 0.631893 -0.139522
0.70039 0.625982 -0.191664
0.583148 0.725977 -0.14771
0.678105 0.725451 -0.140137
0.70174 0.715408 -0.194631
0.583857 0.887511 -0.151415
0.678576 0.885866 -0.141352
0.701989 0.842416 -0.195242
0.59241 0.974922 -0.132886
0.649445 0.98707 -0.151033
0.701304 0.914248 -0.195862
0.634311 1 -0.149751
0.584733 -0.984078 -0.0534337
0.6372 -0.984211 -0.0512564
0.56918 -0.886232 -0.0513568
0.653895 -0.885994 -0.0500428
0.568569 -0.741699 -0.0425557
0.653813 -0.74455 -0.0486773
-0.952186 -0.635074 -0.0724509
-0.869533 -0.650685 -0.0640929
-0.777243 -0.652004 -0.0648905
-0.650016 -0.652169 -0.0673271
-0.549765 -0.648467 -0.0629551
-0.454912 -0.650107 -0.064906
-0.351871 -0.648331 -0.0629896
-0.23307 -0.64883 -0.0632728
-0.157054 -0.64562 -0.0601766
-0.0476582 -0.648342 -0.0628763
0.0380802 -0.650354 -0.06485
0.153373 -0.648761 -0.0629801
0.229116 -0.652187 -0.0668703
0.357206 -0.65212 -0.0648098
0.463973 -0.649273 -0.0652389
0.518181 -0.632306 -0.0739999
0.65385 -0.645358 -0.0489384
-0.965732 -0.55954 -0.0644313
-0.85297 -0.559911 -0.0149306
-0.758954 -0.56807 -0.00744795
-0.653975 -0.578214 -0.00596682
-0.55405 -0.582035 -0.00571575
-0.455716 -0.585312 -0.00620563
-0.347224 -0.584376 -0.00608641
-0.242108 -0.585436 -0.00610274
-0.148763 -0.585842 -0.00662979
-0.0500759 -0.58485 -0.00634151
0.0626124 -0.583345 -0.0057619
0.148593 -0.583195 -0.00684083
0.254727 -0.575838 -0.0067849
0.35743 -0.561821 -0.00959842
0.454075 -0.558071 -0.0239343
0.527965 -0.559742 -0.0671391
0.653975 -0.54723 -0.0496829
-0.965051 -0.44827 -0.0628066
-0.856798 -0.458053 -0.0110496
-0.793891 -0.489146 -0.000599544
0.380638 -0.447146 -0.00410329
0.453659 -0.456342 -0.0214773
0.529242 -0.448839 -0.0663901
0.653784 -0.447863 -0.0485477
-0.967198 -0.368467 -0.064558
-0.856215 -0.360973 -0.0103573
0.386033 -0.36435 -0.00373822
0.454236 -0.358825 -0.0216203
0.529477 -0.369146 -0.066408
0.654231 -0.348028 -0.0515257
-0.966403 -0.233254 -0.0632641
-0.866311 -0.242382 -0.0127876
0.383419 -0.250283 -0.00298546
0.454724 -0.242078 -0.0218159
0.529754 -0.231956 -0.0667657
0.654177 -0.249275 -0.0510855
-0.966484 -0.153459 -0.064333
-0.855952 -0.150783 -0.0102704
0.385974 -0.139464 -0.00360149
0.454584 -0.155825 -0.0218664
0.530325 -0.15474 -0.0659104
0.65433 -0.151571 -0.0524936
-0.963024 -0.0439817 -0.0607799
-0.858039 -0.0454583 -0.0107716
0.387104 -0.0543163 -0.00387424
0.451708 -0.0431298 -0.0211515
0.531256 -0.0447011 -0.0668885
0.65432 -0.0522214 -0.0532235
-0.967135 0.0253013 -0.0643128
-0.859113 0.0408156 -0.0110424
0.385904 0.0501766 -0.00358636
0.454988 0.0472249 -0.0220737
0.542529 0.0202553 -0.0614767
0.634551 0.00320767 -0.051412
-0.964523 0.156009 -0.0620533
-0.858484 0.155908 -0.010874
0.383507 0.149664 -0.00300926
0.453501 0.154201 -0.0213108
0.529664 0.157365 -0.066024
0.653927 0.169909 -0.0500204
-0.967132 0.233066 -0.0643512
-0.863244 0.24769 -0.0120366
0.383276 0.247134 -0.00295305
0.453933 0.25361 -0.0215898
0.52972 0.232699 -0.0663045
0.654045 0.263149 -0.0502188
-0.966398 0.369727 -0.0636051
-0.859342 0.355068 -0.0110923
0.386126 0.361099 -0.00371594
0.455798 0.352806 -0.0221337
0.529643 0.369317 -0.0666601
0.654021 0.355074 -0.0496713
-0.964691 0.448579 -0.0625476
-0.855248 0.458498 -0.0107374
-0.794026 0.487583 -0.000706565
0.379634 0.459639 -0.00428259
0.453905 0.456292 -0.0213658
0.528827 0.450879 -0.0658152
0.654054 0.44713 -0.0502077
-0.966075 0.559054 -0.064807
-0.853386 0.561672 -0.0150543
-0.758738 0.570641 -0.0080753
-0.652586 0.576797 -0.00594851
-0.558017 0.583126 -0.00653752
-0.454594 0.58355 -0.00587956
-0.349154 0.584253 -0.00644226
-0.248155 0.587345 -0.00744961
-0.153257 0.588389 -0.00810803
-0.0536091 0.586043 -0.00719758
0.0616195 0.581961 -0.00555908
0.15091 0.58284 -0.00707815
0.252011 0.574108 -0.00666684
0.354795 0.56298 -0.00972917
0.452961 0.560238 -0.0236728
0.528012 0.559892 -0.0670903
0.654008 0.539308 -0.0500439
-0.952054 0.634658 -0.0722338
-0.872025 0.649824 -0.0637052
-0.778303 0.651546 -0.0653247
-0.649523 0.651388 -0.067052
-0.550629 0.647686 -0.0629663
-0.454744 0.649234 -0.0642018
-0.352068 0.647171 -0.0620968
-0.232901 0.648546 -0.0638191
-0.156889 0.646598 -0.0617605
-0.0466318 0.647862 -0.0629735
0.0377677 0.649167 -0.0639529
0.15408 0.64799 -0.0629614
0.228358 0.651096 -0.0663485
0.356832 0.651287 -0.0645642
0.46419 0.648807 -0.0653862
0.518081 0.632169 -0.0741092
0.65409 0.631266 -0.0506854
0.569586 0.719581 -0.0572503
0.654181 0.724734 -0.0518196
0.569363 0.885122 -0.0528107
0.654094 0.886322 -0.051062
0.584735 0.984093 -0.0534624
0.637234 0.984241 -0.0512932
0.597118 1 -0.0385966
0.62086 1 -0.0568076
0.584434 -0.984893 0.0477952
0.634831 -0.983954 0.0482329
0.569073 -0.88594 0.0502267
0.651679 -0.885837 0.0507774
0.569209 -0.740211 0.0537729
0.651987 -0.742662 0.0528973
0.569066 -0.643442 0.0516956
0.651805 -0.644409 0.0514833
-0.725663 -0.518315 0.00275567
-0.648164 -0.530945 0.00489825
-0.555989 -0.533445 0.007992
-0.443738 -0.533655 0.0114865
-0.357432 -0.534981 0.0136206
-0.236816 -0.534107 0.0160554
-0.155035 -0.535807 0.0146037
-0.0408775 -0.534829 0.0126841
0.0437277 -0.539029 0.00825899
0.153006 -0.531248 0.00697181
0.246209 -0.527495 0.00296585
0.30942 -0.516559 0.00095119
0.569003 -0.545935 0.0501901
0.651663 -0.54635 0.0506854
-0.803302 -0.415806 0.000441811
-0.751371 -0.443229 0.00619624
-0.650616 -0.454764 0.01444
-0.54053 -0.454945 0.0238971
-0.452369 -0.451731 0.0316296
-0.350096 -0.456382 0.0385006
-0.240443 -0.454556 0.0423051
-0.154875 -0.455753 0.0406903
-0.0483784 -0.458571 0.0352489
0.0466306 -0.455251 0.0280186
0.137105 -0.456261 0.0199015
0.250095 -0.455941 0.0107676
0.331402 -0.438482 0.00354517
0.569035 -0.446278 0.0503665
0.65154 -0.446697 0.0501119
-0.806199 -0.353755 0.000913143
-0.753734 -0.351308 0.00933041
-0.638744 -0.350077 0.024073
-0.553447 -0.354584 0.0348689
-0.45737 -0.354935 0.0462289
-0.345379 -0.351116 0.0559328
-0.246321 -0.354152 0.0588006
-0.150746 -0.351214 0.057885
-0.0574067 -0.351609 0.0531335
0.0482222 -0.351108 0.0430681
0.150818 -0.357673 0.0289595
0.239189 -0.352645 0.0187275
0.336165 -0.344278 0.00536112
0.568986 -0.347697 0.0495452
0.651461 -0.346945 0.0488421
-0.807391 -0.24747 0.0014461
-0.754382 -0.248603 0.0111231
-0.650176 -0.251749 0.0269189
-0.5495 -0.243295 0.0425911
-0.445907 -0.251297 0.0554203
-0.35335 -0.257293 0.0625209
-0.248163 -0.256071 0.0661876
-0.146014 -0.254805 0.0651036
-0.046545 -0.253773 0.0597204
0.045664 -0.251871 0.0504195
0.152995 -0.247244 0.0356775
0.253705 -0.251417 0.0198899
0.343609 -0.24935 0.00524713
0.568972 -0.250198 0.0487719
0.651303 -0.249459 0.0483328
-0.80686 -0.153469 0.00160571
-0.75535 -0.155938 0.0121627
-0.649548 -0.145639 0.0298405
-0.532307 -0.161067 0.0489175
-0.445543 -0.153186 0.0597022
-0.347174 -0.15164 0.0670164
-0.253413 -0.155104 0.0697473
-0.137934 -0.158397 0.0685808
-0.0551421 -0.156926 0.0643709
0.0438669 -0.15245 0.0551187
0.142555 -0.154802 0.0406974
0.252195 -0.145886 0.0223989
0.339976 -0.148403 0.00673684
0.568972 -0.15157 0.0485093
0.651094 -0.150672 0.046429
-0.806933 -0.0536785 0.00158932
-0.760176 -0.0455415 0.0117736
-0.654221 -0.0444171 0.0314289
-0.545189 -0.0429033 0.0492675
-0.448935 -0.0419918 0.0614733
-0.346107 -0.041037 0.0687985
-0.239446 -0.0420498 0.0715797
-0.155111 -0.0423186 0.0707366
-0.0501614 -0.0420988 0.0659512
0.0403146 -0.0420194 0.057683
0.141546 -0.0422859 0.0431335
0.257764 -0.0468783 0.0233557
0.344351 -0.0453913 0.00605121
0.569014 -0.05549 0.0485827
0.651478 -0.0517341 0.050154
-0.807167 0.045952 0.00153346
-0.756296 0.041984 0.0125607
-0.651962 0.0370801 0.0319781
-0.546208 0.0393493 0.0491322
-0.446493 0.0484346 0.0615617
-0.34558 0.0426445 0.0687549
-0.249628 0.0544891 0.071267
-0.149125 0.0566508 0.0704117
-0.0523585 0.0573018 0.0658596
0.0474503 0.0602943 0.0564474
0.146298 0.0545275 0.0420812
0.249566 0.0467269 0.024751
0.339763 0.0468427 0.00699724
0.582687 0.0060423 0.0501532
0.633429 0.00354357 0.0513332
-0.806981 0.148668 0.00157782
-0.752928 0.155265 0.012627
-0.644256 0.152703 0.030572
-0.536049 0.155181 0.0484645
-0.451211 0.14991 0.0590871
-0.349266 0.153554 0.0667202
-0.244302 0.148587 0.0699522
-0.142012 0.145112 0.0689045
-0.0595639 0.148189 0.064815
0.0495413 0.148219 0.0544319
0.141533 0.151114 0.0408867
0.253913 0.150337 0.0220617
0.345785 0.156645 0.00552395
0.569168 0.178852 0.0534155
0.652198 0.170374 0.0546445
-0.806653 0.252658 0.00159219
-0.753056 0.245731 0.0113542
-0.645378 0.248986 0.0276235
-0.553649 0.243864 0.0418049
-0.444821 0.25299 0.0553456
-0.354175 0.249385 0.0626722
-0.244393 0.255959 0.0661123
-0.147481 0.259103 0.0647947
-0.0480971 0.248933 0.0598898
0.0445382 0.252714 0.050334
0.153651 0.246332 0.0353833
0.254558 0.249046 0.0196449
0.335363 0.247146 0.00676587
0.569149 0.268278 0.0526211
0.651678 0.263296 0.0503806
-0.806291 0.347227 0.000912523
-0.754117 0.359071 0.00907032
-0.644634 0.346389 0.0234349
-0.543832 0.353369 0.0360331
-0.455215 0.348547 0.0468191
-0.34746 0.348355 0.0558404
-0.244766 0.357116 0.0582765
-0.155234 0.352017 0.0576819
-0.0563757 0.35083 0.0528866
0.0587268 0.349608 0.0416824
0.145865 0.355589 0.0296453
0.242544 0.344856 0.0184614
0.337822 0.355209 0.00481266
0.569027 0.357704 0.0507719
0.651509 0.355035 0.0494178
-0.802568 0.419606 0.000410868
-0.749928 0.450564 0.00571801
-0.652544 0.45283 0.0140972
-0.545922 0.451778 0.0235148
-0.447396 0.452475 0.0315307
-0.357161 0.454355 0.0382054
-0.240156 0.453901 0.0419554
-0.156692 0.455048 0.0404753
-0.0434152 0.453573 0.0355299
0.0448233 0.454562 0.0279194
0.14128 0.454449 0.0194161
0.251745 0.449098 0.0109221
0.330256 0.44206 0.0032066
0.569005 0.44713 0.0500141
0.651371 0.44713 0.048014
-0.729081 0.514988 0.0027319
-0.641925 0.529762 0.00501824
-0.556339 0.53264 0.00770321
-0.442429 0.536597 0.0102652
-0.355604 0.533337 0.0139118
-0.2375 0.533787 0.0156818
-0.155386 0.535699 0.0141611
-0.0409616 0.527496 0.0147365
0.0418156 0.536253 0.00866008
0.15939 0.530943 0.00631509
0.237793 0.525233 0.00343736
0.310506 0.512633 0.000951112
0.568979 0.536556 0.0492511
0.651371 0.539148 0.0481326
0.569037 0.625982 0.0494989
0.651344 0.630964 0.0481798
0.569067 0.715408 0.0495722
0.651489 0.723998 0.0500657
0.569097 0.883828 0.0510309
0.651704 0.885339 0.0516734
0.584408 0.984873 0.0475485
0.634836 0.983887 0.0482223
0.597026 1 0.0381329
0.619121 1 0.0564115
0.592286 -0.97514 0.133573
0.64201 -0.987809 0.148182
0.583584 -0.886275 0.151911
0.670429 -0.887059 0.140094
0.583412 -0.743248 0.151338
